ply
format ascii 1.0
element vertex 1249
property float x
property float y
property float z
property uchar red
property uchar green
property uchar blue
end_header
-22.5956 -15.6857 24.6915  255 255 255
-0.199088 -24.1647 37.8173  255 255 255
-0.942173 -24.0749 37.746  255 255 255
-25.7704 -16.086 24.7032  255 255 255
-5.67687 -23.2764 36.9745  255 255 255
-21.9913 -17.5646 26.6551  255 255 255
-3.33681 -24.952 36.9204  255 255 255
-23.8141 -18.7458 24.9437  255 255 255
1.9141 -29.1095 38.5469  255 255 255
-23.0924 -20.7416 25.0759  255 255 255
-21.3473 -22.2299 31.778  255 255 255
-3.49553 -29.3601 38.8536  255 255 255
-3.44837 -29.3524 38.7165  255 255 255
1.11456 -30.8182 39.2285  255 255 255
5.51772 -32.9389 37.2256  255 255 255
7.56952 -33.944 35.9441  255 255 255
-14.0649 -27.3644 34.6367  255 255 255
-15.0663 -28.7651 31.9674  255 255 255
-6.83499 -31.9016 35.7526  255 255 255
-10.6061 -31.9632 33.5234  255 255 255
-2.21843 -34.9555 36.3894  255 255 255
8.48993 -38.4468 31.7085  255 255 255
4.82249 -37.4924 32.8264  255 255 255
-11.1958 -33.242 31.9622  255 255 255
4.13114 -38.1523 32.8831  255 255 255
4.1032 -38.141 32.9384  255 255 255
-17.181 -32.5672 27.64  255 255 255
-44.9627 -23.4696 -2.64269  255 255 255
-17.589 -33.0658 24.9231  255 255 255
-7.78249 -36.5046 31.3614  255 255 255
-19.5082 -34.3298 22.6314  255 255 255
-14.5099 -36.2395 26.0471  255 255 255
-0.860835 -41.6998 30.3922  255 255 255
-19.5474 -35.7139 22.1008  255 255 255
-10.4633 -39.0776 28.0049  255 255 255
-40.8732 -32.7221 7.49076  255 255 255
-42.9319 -33.0308 7.19373  255 255 255
-43.0809 -33.2399 7.69832  255 255 255
-3.97867 -48.938 28.7753  255 255 255
-6.00947 -50.0854 29.5781  255 255 255
-38.8148 -39.8053 14.5574  255 255 255
-37.6244 -40.4556 15.6831  255 255 255
-43.2345 -39.7835 14.6832  255 255 255
8.46442 -57.6312 33.6806  255 255 255
-33.8458 -44.5665 19.8518  255 255 255
19.1077 -62.7911 39.1236  255 255 255
-29.9071 -47.3196 23.0201  255 255 255
-29.7546 -47.6914 22.9194  255 255 255
-38.1156 -45.3603 20.9631  255 255 255
-38.8972 -45.6993 20.9768  255 255 255
7.72177 -62.9949 39.4779  255 255 255
-23.9299 -52.6612 28.696  255 255 255
-20.2547 -56.1479 32.5559  255 255 255
-20.2547 -56.1479 32.5559  255 255 255
13.0347 -67.9346 44.4198  255 255 255
10.0586 -67.4215 44.0059  255 255 255
6.05253 -66.3764 42.8019  255 255 255
-32.3765 -53.5842 29.3724  255 255 255
-5.17644 -63.52 40.1794  255 255 255
-31.5812 -54.7983 30.6429  255 255 255
-28.9748 -57.2414 32.7557  255 255 255
-34.9143 -56.0954 32.0167  255 255 255
-16.8848 -62.9127 39.0103  255 255 255
-32.3036 -58.1457 33.9458  255 255 255
-20.8265 -62.8428 38.7901  255 255 255
-20.884 -62.7537 38.9681  255 255 255
-21.6534 -62.6712 39.0477  255 255 255
-21.5875 -62.7721 38.8278  255 255 255
-29.979 -60.8216 36.7156  255 255 255
37.2746 97.6961 -57.4365  255 255 255
49.3366 100.234 -63.9296  255 255 255
53.7137 62.5658 -4.37478  255 255 255
51.2206 98.3403 -66.7839  255 255 255
51.2206 98.3403 -66.7839  255 255 255
73.8031 102.264 -78.4698  255 255 255
73.4301 101.412 -79.4985  255 255 255
103.825 106.96 -98.0951  255 255 255
43.7143 93.6399 -65.8094  255 255 255
57.6898 55.2378 -1.42104  255 255 255
62.4256 96.1321 -76.7921  255 255 255
63.6684 96.1677 -78.1089  255 255 255
63.8305 94.8985 -78.8222  255 255 255
85.6092 98.0791 -92.1921  255 255 255
54.6814 37.2105 24.2372  255 255 255
17.873 84.0903 -55.5314  255 255 255
80.5464 94.272 -92.1295  255 255 255
65.2127 90.9956 -82.6313  255 255 255
52.4923 38.2765 19.7854  255 255 255
50.9652 88.5431 -76.7031  255 255 255
55.8165 51.4517 -7.93963  255 255 255
58.9744 30.9231 30.3979  255 255 255
58.9744 30.9231 30.3979  255 255 255
53.3773 86.696 -79.1568  255 255 255
67.9553 87.0466 -87.4193  255 255 255
58.5421 28.9241 28.436  255 255 255
38.8681 82.4153 -73.3606  255 255 255
53.0133 50.1758 -17.8813  255 255 255
20.2869 76.2526 -63.6263  255 255 255
-8.88445 71.2098 -47.3591  255 255 255
30.6011 73.5374 -72.929  255 255 255
30.6874 73.6078 -73.1233  255 255 255
57.8842 24.7966 22.4942  255 255 255
54.6963 42.5706 -19.4337  255 255 255
-1.88187 68.4738 -55.8408  255 255 255
35.4097 71.0313 -78.3569  255 255 255
35.1692 70.139 -79.1376  255 255 255
4.79255 66.7317 -60.632  255 255 255
58.3775 21.1376 20.2707  255 255 255
28.732 68.3035 -77.4896  255 255 255
29.5068 67.86 -77.5947  255 255 255
29.8205 68.2297 -78.5255  255 255 255
13.6023 63.9224 -63.0317  255 255 255
61.1888 31.8322 -9.51517  255 255 255
-0.0121956 63.1022 -60.7091  255 255 255
31.2739 66.3788 -81.9993  255 255 255
-1.8463 61.3163 -60.1693  255 255 255
37.2175 65.3502 -86.1441  255 255 255
37.2175 65.3502 -86.1441  255 255 255
45.1177 64.5135 -93.0462  255 255 255
-3.91408 59.4123 -60.561  255 255 255
54.4875 20.4975 9.37311  255 255 255
59.6439 13.3905 16.0215  255 255 255
48.3662 41.8187 -70.5312  255 255 255
-11.7625 50.2416 -62.6672  255 255 255
52.6322 15.0178 -1.29493  255 255 255
58.6547 20.8029 -27.3467  255 255 255
-1.47152 48.8835 -73.592  255 255 255
-5.71864 46.1888 -72.5793  255 255 255
58.7748 4.93457 6.97122  255 255 255
62.192 1.58958 12.7121  255 255 255
17.2478 31.5076 -60.272  255 255 255
9.00714 31.334 -60.2942  255 255 255
7.23286 29.1893 -57.8418  255 255 255
53.1559 3.61127 -7.67144  255 255 255
54.9845 2.65018 -5.61917  255 255 255
56.5232 1.0072 -2.41563  255 255 255
55.8785 1.52774 -3.89786  255 255 255
55.8369 1.46146 -3.85476  255 255 255
62.2107 -3.53946 8.26116  255 255 255
6.15944 20.7624 -49.4998  255 255 255
10.021 -1.26667 28.1654  255 255 255
52.5715 0.117862 -13.8164  255 255 255
64.0762 -8.3379 7.8795  255 255 255
10.747 -3.25753 32.0846  255 255 255
54.0836 -3.13891 -12.3682  255 255 255
54.1315 -3.13004 -12.4229  255 255 255
29.6537 -6.7919 13.7575  255 255 255
63.3211 -12.6424 5.08736  255 255 255
53.6364 -6.20156 -16.6787  255 255 255
4.91935 -7.15383 35.8865  255 255 255
14.4676 -9.33541 32.9866  255 255 255
58.4539 -11.8298 -7.91143  255 255 255
58.5324 -11.8248 -8.01879  255 255 255
63.9573 -15.4598 2.36023  255 255 255
-11.8081 -2.7392 27.0609  255 255 255
63.2615 -15.6279 -0.502695  255 255 255
7.62937 -10.6785 36.1127  255 255 255
14.1471 -11.8857 33.666  255 255 255
57.9169 -12.9336 -10.917  255 255 255
12.9865 -11.8998 34.7983  255 255 255
2.6274 -11.3962 37.3471  255 255 255
-6.3531 -9.1168 34.8512  255 255 255
-17.9605 -2.64919 14.9676  255 255 255
-22.4681 -0.197449 8.16545  255 255 255
-18.6152 -2.07107 9.87098  255 255 255
-21.6745 7.2638 -34.8119  255 255 255
-15.7789 -6.42834 23.902  255 255 255
5.08086 -15.7281 37.4129  255 255 255
-5.67942 -13.3427 35.835  255 255 255
-17.7147 -7.43301 20.1902  255 255 255
15.1748 -18.3517 32.0313  255 255 255
-8.22834 -12.7744 34.4452  255 255 255
-15.8842 -10.2777 25.8824  255 255 255
51.6601 -23.8648 -2.16568  255 255 255
0.466207 -17.3872 37.2951  255 255 255
-22.8117 -8.22484 16.4455  255 255 255
-14.6268 -13.5242 28.5272  255 255 255
-0.103541 -18.7946 36.8209  255 255 255
49.9406 -26.8346 -0.927118  255 255 255
-9.2648 -15.9463 33.415  255 255 255
21.5527 -24.5384 33.0633  255 255 255
-17.4082 -13.2299 26.7915  255 255 255
14.1033 -23.2878 35.2882  255 255 255
-17.0413 -13.9059 27.353  255 255 255
-0.505129 -20.7615 36.2309  255 255 255
-11.4057 -18.0784 31.6048  255 255 255
-8.84498 -19.2792 32.9194  255 255 255
-14.6017 -17.9693 31.412  255 255 255
18.3808 -28.1923 35.2131  255 255 255
-5.34178 -24.1119 36.649  255 255 255
1.67446 -26.2269 37.179  255 255 255
5.44334 -28.7222 38.0315  255 255 255
-25.1682 -19.3011 21.2241  255 255 255
-22.9157 -20.6509 26.0194  255 255 255
-20.8808 -22.2993 31.3597  255 255 255
-6.58001 -27.5936 37.1067  255 255 255
-9.43312 -27.5325 36.9303  255 255 255
15.8756 -35.6203 30.1205  255 255 255
-15.1672 -26.5132 34.17  255 255 255
-20.1003 -25.6761 28.698  255 255 255
15.6027 -37.8821 28.6422  255 255 255
15.8996 -37.9114 28.0431  255 255 255
-12.4828 -32.3319 31.8954  255 255 255
-2.22141 -35.8301 35.7018  255 255 255
-15.1709 -31.7231 29.1708  255 255 255
-18.9483 -30.7174 25.5703  255 255 255
-22.0373 -29.9921 19.8523  255 255 255
4.83327 -39.1082 31.8696  255 255 255
4.83327 -39.1082 31.8696  255 255 255
2.61956 -38.5551 31.4699  255 255 255
2.16905 -39.0026 31.6574  255 255 255
2.16905 -39.0026 31.6574  255 255 255
9.45752 -41.6016 30.1734  255 255 255
-16.6003 -33.9133 26.8432  255 255 255
-8.99806 -37.8011 29.0665  255 255 255
-42.7562 -27.7163 2.21053  255 255 255
-42.7687 -27.7023 2.48638  255 255 255
-40.5553 -35.4842 10.5416  255 255 255
-4.02105 -48.1405 28.9209  255 255 255
-2.4979 -49.2114 29.1925  255 255 255
10.4807 -57.0072 32.9844  255 255 255
-34.1076 -44.8175 20.1619  255 255 255
-31.1217 -49.4386 25.2876  255 255 255
3.78377 -61.1356 37.271  255 255 255
4.76793 -65.209 41.5599  255 255 255
-27.1451 -55.2473 31.0871  255 255 255
-26.7308 -55.6695 31.5564  255 255 255
-22.4072 -63.7136 40.3913  255 255 255
-29.683 -61.7065 37.7741  255 255 255
58.9147 61.5864 2.977  255 255 255
89.3187 108.917 -85.0802  255 255 255
28.2052 95.8709 -52.7168  255 255 255
28.2052 95.8709 -52.7168  255 255 255
69.4227 102.965 -74.6689  255 255 255
52.2718 64.3372 -6.29587  255 255 255
48.5152 98.6138 -65.4209  255 255 255
1.82239 87.6113 -40.3469  255 255 255
53.9682 60.739 -5.56258  255 255 255
57.4774 42.0736 25.244  255 255 255
-4.9151 82.8888 -39.029  255 255 255
61.7545 94.7188 -78.9707  255 255 255
61.1689 94.1328 -77.7405  255 255 255
-3.04651 77.9781 -45.7979  255 255 255
16.8621 80.4293 -56.9188  255 255 255
67.0178 88.1597 -86.8664  255 255 255
55.8197 32.1178 23.1249  255 255 255
39.3441 80.8558 -74.1198  255 255 255
52.4184 78.7217 -81.9862  255 255 255
52.6144 78.855 -82.3536  255 255 255
30.876 76.1345 -71.5513  255 255 255
39.7206 76.9216 -77.0494  255 255 255
46.6359 75.7548 -80.0419  255 255 255
57.5524 24.5669 21.5097  255 255 255
3.96163 69.1477 -57.6562  255 255 255
3.99116 69.1982 -57.776  255 255 255
10.3768 65.5748 -64.4335  255 255 255
57.0241 21.3001 16.9614  255 255 255
57.0241 21.3001 16.9614  255 255 255
-13.109 62.1617 -51.8626  255 255 255
52.2813 25.1317 6.76412  255 255 255
58.0363 32.4849 -18.1168  255 255 255
52.9635 36.3268 -26.2085  255 255 255
67.1936 57.8902 -85.4548  255 255 255
67.885 57.8911 -88.1901  255 255 255
55.7077 19.2099 11.93  255 255 255
-8.33943 58.0275 -59.1729  255 255 255
-12.681 57.4696 -56.5094  255 255 255
59.8501 27.4501 -16.9358  255 255 255
52.2988 32.1024 -35.3219  255 255 255
54.917 27.7634 -31.0263  255 255 255
54.247 27.9565 -32.6057  255 255 255
53.8295 15.2975 1.86364  255 255 255
56.8413 22.9354 -29.637  255 255 255
57.9364 18.908 -28.8148  255 255 255
58.5196 17.6919 -29.8547  255 255 255
56.8403 7.89296 -0.418906  255 255 255
54.7256 20.4354 -37.7897  255 255 255
58.0887 16.9707 -30.4402  255 255 255
55.2764 19.2132 -36.6119  255 255 255
55.0356 19.1395 -37.7239  255 255 255
-19.9233 42.8385 -64.5883  255 255 255
31.788 30.0721 -58.8748  255 255 255
56.5362 5.45495 1.29873  255 255 255
-10.1468 42.4725 -71.0318  255 255 255
18.9005 28.6475 -58.5269  255 255 255
63.6384 -2.41659 11.7267  255 255 255
13.692 27.41 -56.0359  255 255 255
10.0387 23.9282 -52.0098  255 255 255
55.0815 0.00779431 -7.84802  255 255 255
64.1551 -7.88802 9.3946  255 255 255
59.2445 -6.91985 -2.20237  255 255 255
62.7104 -11.2213 1.88304  255 255 255
-6.19201 -4.28896 32.5036  255 255 255
63.5583 -14.837 1.52249  255 255 255
1.30893 -7.77287 36.1271  255 255 255
62.5172 -15.2426 -1.6024  255 255 255
-13.8666 -2.33148 23.7282  255 255 255
58.314 -13.5552 -10.0325  255 255 255
-17.8014 10.8149 -38.277  255 255 255
63.6339 -18.1907 0.0530565  255 255 255
2.1692 -11.7566 37.4029  255 255 255
64.7214 -20.1093 -0.344498  255 255 255
-23.8089 8.34102 -35.8344  255 255 255
1.86876 -14.5316 37.5685  255 255 255
-19.4242 2.68909 -30.0492  255 255 255
-10.3015 -13.5358 33.3177  255 255 255
-16.6237 -12.1358 25.2676  255 255 255
-7.15662 -16.2751 34.8933  255 255 255
4.8619 -19.932 36.4439  255 255 255
-11.5702 -15.1655 31.95  255 255 255
-0.111059 -19.4363 36.3154  255 255 255
-3.60939 -18.6112 36.1572  255 255 255
-15.2351 -16.1496 29.7599  255 255 255
-14.2611 -16.6505 29.9584  255 255 255
-5.48423 -19.8687 35.0187  255 255 255
-13.505 -17.8258 31.2962  255 255 255
0.163276 -23.8349 37.6979  255 255 255
-4.72523 -22.485 35.9377  255 255 255
-10.6904 -20.6824 34.3188  255 255 255
-15.4719 -22.817 31.7177  255 255 255
-16.0269 -23.0778 32.3005  255 255 255
-16.0269 -23.0778 32.3005  255 255 255
14.6016 -37.6774 29.4583  255 255 255
16.5673 -38.447 27.3804  255 255 255
13.1106 -37.7328 30.1298  255 255 255
-7.30379 -32.015 35.1029  255 255 255
-2.10725 -36.6417 33.6929  255 255 255
-15.5232 -34.4045 27.3379  255 255 255
6.73513 -41.8723 28.9681  255 255 255
9.94861 -44.7917 31.3599  255 255 255
-39.5003 -28.9144 3.43868  255 255 255
-2.36968 -41.7141 30.7225  255 255 255
-44.9719 -30.6525 5.05198  255 255 255
-13.1929 -41.6446 26.0629  255 255 255
-40.826 -33.4771 7.20688  255 255 255
-45.2974 -33.5287 8.1373  255 255 255
-38.7032 -38.8 14.094  255 255 255
-32.8058 -43.974 19.3465  255 255 255
-39.969 -42.4878 17.5836  255 255 255
-35.7165 -44.3581 19.4832  255 255 255
-38.9779 -45.8243 21.1944  255 255 255
-23.5749 -51.4629 27.4397  255 255 255
-33.8434 -49.4013 25.1489  255 255 255
-26.3878 -52.3777 28.3122  255 255 255
10.7372 -67.0537 43.76  255 255 255
-30.4342 -56.379 32.7148  255 255 255
-32.4537 -58.7412 34.7228  255 255 255
-22.0952 -62.3148 38.867  255 255 255
-22.5793 -62.7152 38.5736  255 255 255
-30.9069 -60.4999 36.5331  255 255 255
-22.721 -63.2901 39.7712  255 255 255
-30.2846 -61.2542 37.274  255 255 255
53.0201 64.262 -4.57538  255 255 255
72.398 101.266 -83.1121  255 255 255
53.7624 42.8737 23.615  255 255 255
-0.175367 85.6281 -40.8984  255 255 255
66.699 95.6567 -80.2062  255 255 255
61.3773 35.3414 30.9621  255 255 255
59.4428 32.1669 33.3834  255 255 255
56.5136 53.1678 -5.43608  255 255 255
77.4653 94.3922 -89.469  255 255 255
74.0602 87.5031 -92.9592  255 255 255
-14.2322 73.6742 -41.3564  255 255 255
81.2603 87.0324 -97.96  255 255 255
81.3926 87.112 -98.2094  255 255 255
48.1418 76.393 -81.2357  255 255 255
56.4724 24.2115 17.7277  255 255 255
-4.14815 66.5823 -55.5315  255 255 255
26.4367 67.5723 -72.8328  255 255 255
26.7729 67.9198 -73.947  255 255 255
55.6663 21.8823 13.8738  255 255 255
-3.10567 61.4874 -60.8585  255 255 255
60.1454 28.2606 -15.2685  255 255 255
60.0972 28.2627 -15.2127  255 255 255
-9.49439 53.6508 -62.8296  255 255 255
55.7557 27.1717 -28.9096  255 255 255
56.2082 10.5565 5.07407  255 255 255
56.8542 20.7264 -30.8615  255 255 255
62.3371 0.512619 11.9082  255 255 255
57.6506 15.1137 -34.041  255 255 255
8.17175 32.0041 -60.7493  255 255 255
16.655 22.9999 -50.8601  255 255 255
55.87 -2.89345 -8.02328  255 255 255
56.8783 -4.63269 -6.95351  255 255 255
9.48537 -5.01348 33.4011  255 255 255
9.1378 -5.08359 32.7093  255 255 255
58.3654 -8.78034 -6.50153  255 255 255
7.07047 -7.98271 35.8841  255 255 255
61.8939 -12.3978 -0.948621  255 255 255
-2.29123 -6.05666 34.8755  255 255 255
65.1005 -17.039 1.45934  255 255 255
5.57809 -11.1373 36.8921  255 255 255
-17.5313 8.64672 -35.876  255 255 255
9.90485 -15.2223 35.6028  255 255 255
-6.73916 -10.8775 34.8253  255 255 255
7.63303 -15.7214 36.7979  255 255 255
5.42515 -17.0592 36.8388  255 255 255
-18.4483 -8.64728 21.4646  255 255 255
-18.4348 -12.4554 25.3842  255 255 255
-20.9768 -11.0734 19.9355  255 255 255
-20.9768 -11.0734 19.9355  255 255 255
5.1314 -20.7798 36.2612  255 255 255
5.1314 -20.7798 36.2612  255 255 255
-15.6031 -14.2704 27.6477  255 255 255
-14.0139 -15.5185 29.53  255 255 255
-14.8777 -15.175 28.7655  255 255 255
-10.077 -17.489 32.7966  255 255 255
3.11347 -21.7906 35.8017  255 255 255
-15.2194 -18.641 31.9661  255 255 255
-9.71098 -20.4252 33.9733  255 255 255
1.14661 -25.1066 37.8716  255 255 255
16.6279 -30.056 34.7403  255 255 255
-13.5428 -22.5171 32.3507  255 255 255
10.2504 -30.7923 39.1375  255 255 255
-23.1043 -20.0388 26.0665  255 255 255
-11.814 -24.2447 33.5118  255 255 255
-4.40034 -27.2676 35.4519  255 255 255
9.03646 -32.6677 37.2017  255 255 255
-20.046 -24.1832 30.5114  255 255 255
8.8891 -36.7489 32.181  255 255 255
15.8254 -39.518 26.6413  255 255 255
-41.6764 -24.8953 -1.21013  255 255 255
-41.6696 -24.9554 -1.28961  255 255 255
-8.44726 -38.4744 28.2926  255 255 255
-44.2546 -27.3241 1.87872  255 255 255
-10.3091 -41.1794 26.0506  255 255 255
-32.5541 -44.6436 19.8033  255 255 255
-37.1452 -43.9649 18.5599  255 255 255
16.0892 -63.4896 39.9885  255 255 255
-5.80208 -59.5992 35.6085  255 255 255
13.0157 -67.1516 43.9108  255 255 255
-4.57624 -62.7788 39.2565  255 255 255
-2.03359 -67.0252 44.5095  255 255 255
-25.2432 -61.6347 37.5691  255 255 255
56.2405 54.7786 -3.01599  255 255 255
79.5513 94.1583 -91.1934  255 255 255
-18.8725 59.8619 -49.0939  255 255 255
55.497 31.0912 -25.722  255 255 255
-6.32109 53.6558 -65.0277  255 255 255
19.9377 29.6633 -58.7807  255 255 255
0.132832 -12.3526 37.0712  255 255 255
-16.2374 -5.37202 21.2475  255 255 255
-15.8548 -9.40895 26.2673  255 255 255
-11.1345 -12.0397 32.2717  255 255 255
-9.51954 -14.8249 33.6807  255 255 255
-8.23202 -19.5329 33.9182  255 255 255
9.15245 -28.7923 38.528  255 255 255
5.36063 -28.282 39.8624  255 255 255
-11.3341 -24.5975 33.7595  255 255 255
-15.9376 -23.5825 32.4242  255 255 255
8.9364 -33.3753 35.3164  255 255 255
-5.72451 -34.9028 33.5302  255 255 255
-22.4342 -31.1839 19.1433  255 255 255
-18.9146 -33.9946 22.7518  255 255 255
-37.4901 -39.8576 14.8912  255 255 255
-42.0954 -39.6769 14.5896  255 255 255
-21.8516 -52.5767 28.2899  255 255 255
-32.872 -50.3828 26.3109  255 255 255
-12.953 57.5738 -57.3639  255 255 255
-14.9188 53.5351 -56.3325  255 255 255
52.8372 18.2692 0.352397  255 255 255
57.0015 8.75431 4.20673  255 255 255
56.1801 7.71749 3.61963  255 255 255
0.895139 4.46869 23.6831  255 255 255
-17.8649 1.76586 6.07129  255 255 255
-19.3882 0.690454 6.92906  255 255 255
-18.5971 -0.0231485 7.69832  255 255 255
-0.888826 -11.286 37.1476  255 255 255
-6.81966 -16.596 36.6555  255 255 255
4.62535 -24.7657 37.8841  255 255 255
0.0950299 -24.8439 38.0842  255 255 255
-3.65121 -24.0988 37.1897  255 255 255
-11.0143 -24.017 34.2501  255 255 255
5.89214 -29.8618 39.074  255 255 255
-9.96638 -25.5398 34.413  255 255 255
19.5469 -37.3219 27.5208  255 255 255
17.3827 -37.2263 27.3598  255 255 255
17.3827 -37.2263 27.3598  255 255 255
4.70214 -37.9499 32.7745  255 255 255
8.44183 -40.319 30.4342  255 255 255
8.73123 -40.4127 29.7545  255 255 255
-22.136 -32.1374 19.2779  255 255 255
8.5079 -42.2574 29.3221  255 255 255
-19.9561 -33.5142 22.3215  255 255 255
-41.674 -37.6458 12.6936  255 255 255
-42.7853 -38.4073 13.4958  255 255 255
-28.8893 -45.3542 22.1153  255 255 255
-34.346 -44.0236 19.5718  255 255 255
13.7822 -63.3877 39.2757  255 255 255
15.0452 -65.1526 41.6475  255 255 255
51.812 61.8106 -8.42545  255 255 255
73.2583 97.4823 -83.9072  255 255 255
26.0928 84.3376 -62.2489  255 255 255
61.2296 43.1204 -7.02092  255 255 255
31.813 71.7297 -73.2994  255 255 255
58.3269 11.9793 12.1653  255 255 255
55.6606 10.3953 3.04025  255 255 255
18.5056 31.3804 -59.8815  255 255 255
-15.5139 1.29242 9.09878  255 255 255
-1.75216 -15.4504 37.1905  255 255 255
4.35157 -23.7828 37.4596  255 255 255
-40.453 -27.8342 2.64268  255 255 255
-23.0359 -35.2249 21.8779  255 255 255
-27.4768 -49.4145 24.53  255 255 255
-36.9987 -47.0057 22.4277  255 255 255
29.7418 95.1645 -55.4239  255 255 255
15.409 29.2569 -57.6446  255 255 255
-4.26353 -10.9851 36.2645  255 255 255
8.48987 -31.118 39.1638  255 255 255
6.82066 -39.6378 30.9373  255 255 255
-16.9183 -32.4373 26.3442  255 255 255
-39.9472 -38.9413 13.6538  255 255 255
-39.9472 -38.9413 13.6538  255 255 255
-40.2962 -40.4607 16.0268  255 255 255
68.3655 97.3271 -79.3057  255 255 255
16.9653 88.0314 -52.4704  255 255 255
55.3632 53.1628 -7.0954  255 255 255
59.6558 45.858 -10.3049  255 255 255
-18.0349 -0.452303 11.0878  255 255 255
-6.39578 -13.3845 34.9719  255 255 255
18.5465 -20.3473 35.9012  255 255 255
3.25457 -31.3659 39.3185  255 255 255
-11.8129 -27.4309 37.2158  255 255 255
-28.1841 -51.0325 26.2568  255 255 255
44.0495 72.0582 -85.5338  255 255 255
44.0495 72.0582 -85.5338  255 255 255
-1.4038 60.4726 -64.2665  255 255 255
-9.01036 -11.5323 33.4199  255 255 255
8.36122 -25.2298 44.488  255 255 255
-1.31959 -29.7382 39.1816  255 255 255
-7.60019 -24.8478 34.0831  255 255 255
-7.60019 -24.8478 34.0831  255 255 255
-2.42478 64.0449 -59.8904  255 255 255
-33.8748 58.846 -40.0792  255 255 255
-12.3803 61.7528 -54.9189  255 255 255
-55.5323 55.5861 -27.9873  255 255 255
-32.9886 57.9966 -41.6066  255 255 255
-23.6502 59.4717 -48.2733  255 255 255
-23.6502 59.4717 -48.2733  255 255 255
-20.5816 59.1576 -50.1502  255 255 255
54.1604 37.722 -22.9346  255 255 255
-24.3121 56.1668 -50.5306  255 255 255
52.7637 24.9284 9.23161  255 255 255
59.3043 32.1083 -12.7392  255 255 255
-30.5126 53.7712 -47.4063  255 255 255
-45.4577 50.2515 -38.1163  255 255 255
59.0607 17.6995 20.1517  255 255 255
-41.6552 50.1784 -41.6922  255 255 255
-31.0794 51.2832 -48.8686  255 255 255
-21.1207 51.4988 -53.652  255 255 255
55.7803 19.9058 12.4371  255 255 255
-0.827864 54.3222 -68.8908  255 255 255
53.1003 34.1504 -28.7012  255 255 255
-45.0969 49.4589 -40.4608  255 255 255
11.0207 54.2535 -78.351  255 255 255
11.5309 53.8612 -79.0552  255 255 255
59.4416 27.3283 -18.0668  255 255 255
-37.239 47.8739 -48.0092  255 255 255
-20.9376 48.6968 -59.0189  255 255 255
-44.4703 45.2088 -43.4751  255 255 255
-44.4703 45.2088 -43.4751  255 255 255
-20.6022 47.5794 -60.488  255 255 255
-58.6942 44.224 -34.8022  255 255 255
-37.7048 45.5835 -48.0343  255 255 255
-21.6279 47.2554 -60.0734  255 255 255
-51.9219 44.1727 -38.6814  255 255 255
-41.4657 44.9213 -45.6525  255 255 255
-47.224 44.4384 -41.7048  255 255 255
-57.2496 44.0457 -36.9558  255 255 255
-58.1846 43.7531 -36.0465  255 255 255
-50.0815 44.2233 -40.8669  255 255 255
-47.773 43.9987 -42.0455  255 255 255
-72.9283 42.7257 -27.3395  255 255 255
-46.1916 43.4142 -43.8101  255 255 255
13.8829 45.4791 -75.1272  255 255 255
13.0697 44.8499 -73.5676  255 255 255
58.4383 24.1129 -23.8841  255 255 255
-53.4239 42.1667 -39.9015  255 255 255
-46.3685 41.864 -43.126  255 255 255
-39.682 43.3645 -51.4376  255 255 255
-48.8312 42.3097 -43.7722  255 255 255
56.0826 24.7131 -29.1789  255 255 255
56.0826 24.7131 -29.1789  255 255 255
-43.9987 41.9683 -47.1047  255 255 255
-44.846 42.1957 -47.6279  255 255 255
-60.0143 41.1124 -37.3018  255 255 255
19.8351 40.3555 -69.3624  255 255 255
-50.183 41.6411 -43.9069  255 255 255
-56.9336 41.0684 -39.0357  255 255 255
-20.8462 43.1803 -63.4826  255 255 255
-68.8242 40.4124 -32.6184  255 255 255
2.53915 42.2645 -71.0877  255 255 255
-45.4719 40.7322 -46.7533  255 255 255
53.8085 31.6045 -59.2267  255 255 255
-4.0031 41.171 -69.319  255 255 255
55.4759 23.2137 -31.4925  255 255 255
58.8817 20.8096 -25.0851  255 255 255
-63.5901 39.392 -36.3777  255 255 255
-49.1427 40.1294 -46.0405  255 255 255
-20.9578 41.6863 -65.4252  255 255 255
-66.9169 38.7061 -35.0519  255 255 255
-66.9169 38.7061 -35.0519  255 255 255
-36.8866 39.3523 -53.3582  255 255 255
-65.3184 37.8557 -34.7086  255 255 255
2.59428 36.7569 -63.7982  255 255 255
-2.78968 38.2502 -66.7925  255 255 255
-40.5754 23.7237 -8.75627  255 255 255
-48.5676 38.8157 -47.9639  255 255 255
8.0373 36.2091 -66.2212  255 255 255
-30.5617 38.9701 -59.1167  255 255 255
-0.438064 36.5926 -65.5898  255 255 255
-35.3896 38.9271 -57.4105  255 255 255
6.50257 34.4777 -62.6886  255 255 255
54.0182 11.573 0.185406  255 255 255
3.90548 35.142 -64.568  255 255 255
3.934 35.1769 -64.619  255 255 255
2.59449 34.1946 -62.3864  255 255 255
1.79705 34.1184 -62.3556  255 255 255
57.4774 18.1817 -28.2371  255 255 255
56.9955 9.11019 5.68807  255 255 255
56.9955 9.11019 5.68807  255 255 255
-9.6121 36.0127 -64.7718  255 255 255
-10.2895 35.5491 -64.1838  255 255 255
-65.4185 34.6806 -34.7233  255 255 255
-20.7564 36.2444 -64.351  255 255 255
-62.3792 35.2362 -39.8838  255 255 255
-62.3792 35.2362 -39.8838  255 255 255
-60.8543 35.4402 -41.5849  255 255 255
-47.4137 35.7732 -50.2718  255 255 255
-13.484 34.4963 -63.3516  255 255 255
-2.13122 32.4409 -61.2777  255 255 255
-13.5133 33.9367 -62.7918  255 255 255
-22.6073 35.3513 -63.672  255 255 255
-22.6039 35.3302 -63.6308  255 255 255
-6.93869 32.1195 -59.6549  255 255 255
-59.2064 34.7541 -42.7236  255 255 255
-41.8197 35.4573 -57.4061  255 255 255
-42.0566 35.1263 -56.1671  255 255 255
-22.4823 33.5817 -62.0594  255 255 255
-60.4778 33.8644 -43.7179  255 255 255
28.6825 23.5012 -51.5182  255 255 255
-50.162 33.5379 -50.7129  255 255 255
66.0282 0.457304 22.8685  255 255 255
66.024 0.80749 20.3277  255 255 255
-36.9941 33.5922 -61.4016  255 255 255
-48.3581 33.2395 -53.9581  255 255 255
-21.1342 30.6757 -59.1092  255 255 255
-16.8179 29.9483 -59.036  255 255 255
-70.0349 33.758 -44.6822  255 255 255
5.58275 25.011 -53.6895  255 255 255
-41.2979 32.7017 -58.5685  255 255 255
-23.1512 30.3201 -59.2831  255 255 255
-60.9175 32.0049 -44.095  255 255 255
-49.7149 32.3901 -53.3711  255 255 255
-47.188 32.2666 -54.471  255 255 255
-58.726 31.9655 -46.3641  255 255 255
-42.0667 32.4013 -59.0607  255 255 255
-48.1884 31.6601 -52.6571  255 255 255
-48.1884 31.6601 -52.6571  255 255 255
-13.1809 27.2838 -55.7087  255 255 255
-68.2937 32.1981 -43.6208  255 255 255
-57.0469 31.2137 -47.1128  255 255 255
-73.8011 31.1746 -36.8978  255 255 255
37.1558 17.8497 -45.8494  255 255 255
58.0612 12.647 -34.7738  255 255 255
63.2729 0.918534 13.5049  255 255 255
-30.6146 29.5038 -57.6615  255 255 255
-30.6146 29.5038 -57.6615  255 255 255
63.2666 0.271294 16.0378  255 255 255
-34.179 30.1884 -58.8573  255 255 255
-10.3769 25.452 -53.0822  255 255 255
-47.6006 31.2465 -56.124  255 255 255
6.21549 21.9808 -49.3673  255 255 255
-26.842 28.4024 -57.644  255 255 255
-57.1083 30.5008 -48.2134  255 255 255
-57.2165 30.6706 -48.7886  255 255 255
-28.3791 28.4157 -57.2747  255 255 255
-11.3512 24.9858 -52.8722  255 255 255
-55.3984 30.8446 -51.1542  255 255 255
-78.3884 30.2278 -34.1462  255 255 255
-54.9395 30.725 -51.6986  255 255 255
-54.5753 30.2151 -49.3876  255 255 255
62.648 0.563841 12.3744  255 255 255
-60.3299 30.2138 -46.3713  255 255 255
-52.9954 30.4332 -52.7561  255 255 255
-52.7121 29.997 -50.8051  255 255 255
-69.9359 31.0151 -45.2966  255 255 255
-57.1114 30.2089 -50.246  255 255 255
-50.2506 29.7255 -52.5274  255 255 255
-34.6529 28.4408 -57.0308  255 255 255
-25.3684 26.5323 -54.692  255 255 255
64.7423 -1.75607 19.3671  255 255 255
-53.2575 30.1976 -53.187  255 255 255
-52.6655 30.1047 -53.6323  255 255 255
-55.2137 29.9199 -51.9151  255 255 255
62.0392 -0.119172 11.7068  255 255 255
-56.2865 29.7592 -51.5719  255 255 255
-51.4894 29.8055 -54.7513  255 255 255
-47.8621 29.3186 -55.118  255 255 255
3.84876 20.2787 -48.1157  255 255 255
-72.4249 29.1855 -39.4524  255 255 255
-73.0768 29.142 -39.2019  255 255 255
-50.7462 29.4841 -55.5998  255 255 255
-76.0844 28.6832 -35.3322  255 255 255
-68.4094 29.6981 -45.0362  255 255 255
-53.1138 29.3505 -54.2789  255 255 255
-56.2878 29.1679 -51.589  255 255 255
-56.2878 29.1679 -51.589  255 255 255
63.3832 -1.63521 14.3813  255 255 255
-57.2614 28.4573 -49.3418  255 255 255
-33.8353 25.7709 -53.8907  255 255 255
-14.8282 22.0878 -49.8313  255 255 255
-19.7988 22.4317 -49.363  255 255 255
50.9404 10.1941 -37.4668  255 255 255
66.1134 -3.8179 19.9197  255 255 255
-51.466 27.3415 -53.0011  255 255 255
-4.61051 3.36784 24.8027  255 255 255
-74.5577 27.5573 -39.6712  255 255 255
-69.9705 28.5092 -47.2975  255 255 255
-57.7845 27.5315 -52.0184  255 255 255
-51.4656 27.383 -56.8832  255 255 255
65.3746 -3.55245 15.4327  255 255 255
-60.1058 26.7801 -49.4695  255 255 255
-3.14448 17.3222 -44.1057  255 255 255
-77.048 26.6562 -37.4517  255 255 255
-74.5782 26.8754 -40.5249  255 255 255
-51.5489 26.3494 -54.5232  255 255 255
-19.8193 19.66 -46.4807  255 255 255
-85.711 28.6433 -43.3197  255 255 255
-76.5065 26.459 -39.1907  255 255 255
-73.3682 26.0864 -40.5316  255 255 255
-58.163 26.3272 -52.9834  255 255 255
-76.4745 26.0374 -39.5601  255 255 255
-59.4034 25.5737 -50.9725  255 255 255
-29.9062 19.9568 -46.9162  255 255 255
-29.9062 19.9568 -46.9162  255 255 255
-7.83727 2.12687 24.7447  255 255 255
-17.594 17.6097 -44.5178  255 255 255
-60.6324 25.3216 -51.5572  255 255 255
-62.3788 25.3287 -50.6518  255 255 255
60.5943 -2.82815 4.89934  255 255 255
-17.7564 17.1527 -44.091  255 255 255
61.3526 -3.53555 6.05078  255 255 255
47.5395 5.41619 -32.7906  255 255 255
11.5776 -2.65158 31.3815  255 255 255
62.0881 -4.69069 7.26924  255 255 255
12.7029 -3.35429 31.6322  255 255 255
13.8225 -3.7264 31.007  255 255 255
64.0073 -6.34653 10.5717  255 255 255
58.3649 -3.60864 -1.8252  255 255 255
-35.5471 16.6558 -44.4779  255 255 255
47.085 2.33176 -29.6085  255 255 255
16.1127 -4.83728 29.6625  255 255 255
47.7168 1.12892 -28.1075  255 255 255
8.09255 -4.86522 34.2872  255 255 255
69.7797 -10.7534 23.0087  255 255 255
46.392 0.549318 -26.924  255 255 255
66.6497 -9.52554 16.7985  255 255 255
54.235 -3.1992 -12.5579  255 255 255
-8.8185 -1.94283 28.6817  255 255 255
-12.8411 -0.727961 23.2776  255 255 255
-53.0892 16.8687 -44.594  255 255 255
-55.1584 17.131 -45.2533  255 255 255
-55.1584 17.131 -45.2533  255 255 255
-13.9738 1.2569 10.5689  255 255 255
-14.2607 0.951911 10.9586  255 255 255
-61.0798 17.2242 -43.8549  255 255 255
70.7226 -12.5781 23.795  255 255 255
56.6007 -6.27125 -9.21951  255 255 255
-55.6228 15.1111 -43.0827  255 255 255
-38.8672 11.229 -38.8753  255 255 255
28.1546 -7.07292 15.1056  255 255 255
-44.8602 12.0409 -39.0778  255 255 255
-70.2495 16.8798 -45.4638  255 255 255
56.6484 -7.40515 -9.4147  255 255 255
65.3627 -11.2989 9.2258  255 255 255
-37.5881 10.1802 -38.7777  255 255 255
-36.7478 9.67827 -36.9821  255 255 255
-11.8685 -4.21722 27.8859  255 255 255
-6.93244 -5.66368 32.6596  255 255 255
-20.7733 0.115102 7.40765  255 255 255
67.904 -12.9931 12.5793  255 255 255
17.3806 -8.95682 30.7034  255 255 255
-68.8779 14.5822 -43.2103  255 255 255
-17.0524 -1.92432 14.015  255 255 255
-17.0524 -1.92432 14.015  255 255 255
28.8055 -8.96422 16.7252  255 255 255
5.4942 -8.64273 36.1378  255 255 255
-32.653 7.01574 -34.1142  255 255 255
-14.9803 -3.96232 23.4282  255 255 255
7.61937 -9.12956 36.0847  255 255 255
7.61937 -9.12956 36.0847  255 255 255
65.533 -13.187 9.04676  255 255 255
-34.5746 7.08478 -33.5099  255 255 255
53.2779 -8.09353 -18.7878  255 255 255
66.2466 -13.5539 8.03547  255 255 255
54.0788 -8.48493 -18.5808  255 255 255
54.1269 -8.49683 -18.6881  255 255 255
58.7721 -10.8929 -6.75164  255 255 255
-15.0139 -5.01738 24.6193  255 255 255
-32.5688 5.42468 -32.703  255 255 255
53.1441 -9.1896 -17.4151  255 255 255
67.2632 -14.8329 9.16173  255 255 255
53.1598 -9.50055 -17.8725  255 255 255
12.3279 -10.7423 34.8208  255 255 255
29.8343 -11.1515 18.9605  255 255 255
64.6658 -13.9652 3.32986  255 255 255
-21.0195 -2.94911 10.6436  255 255 255
13.3852 -11.2021 34.0728  255 255 255
-27.4998 3.0363 -28.8908  255 255 255
-69.5972 10.8295 -38.8708  255 255 255
-46.0192 6.17637 -33.3092  255 255 255
-56.3126 7.86729 -35.4907  255 255 255
68.4229 -16.7621 13.5614  255 255 255
-47.559 3.48327 -16.6026  255 255 255
28.0167 -12.4992 20.4398  255 255 255
-34.637 2.99079 -29.5332  255 255 255
22.894 -12.6374 25.0433  255 255 255
-59.5667 7.10696 -34.6772  255 255 255
-2.40436 -10.6363 36.4837  255 255 255
8.26631 -12.2732 36.6037  255 255 255
0.632364 -11.5222 37.0792  255 255 255
-43.2983 2.82744 -29.9653  255 255 255
-20.1904 -6.51976 18.3267  255 255 255
-8.1506 -10.1141 33.8014  255 255 255
-14.2539 -8.79656 27.542  255 255 255
28.5398 -14.8194 23.1504  255 255 255
-39.8238 0.994364 -28.1865  255 255 255
-41.1346 1.00536 -27.826  255 255 255
1.9517 -12.7793 37.2979  255 255 255
21.7081 -14.6632 27.3023  255 255 255
-43.0991 1.10824 -27.8842  255 255 255
14.3254 -14.5905 34.1163  255 255 255
70.08 -20.2491 8.4591  255 255 255
-44.519 0.505548 -27.5025  255 255 255
57.7078 -16.9247 -9.72959  255 255 255
-47.7641 -0.323458 -18.1992  255 255 255
-7.20755 -12.1057 34.8172  255 255 255
58.6487 -17.6354 -9.08863  255 255 255
-24.1203 -8.03492 16.338  255 255 255
-15.7147 -10.459 26.4157  255 255 255
-45.9845 -0.897508 -25.616  255 255 255
-24.1036 -8.73109 16.879  255 255 255
7.7971 -15.7473 36.6433  255 255 255
-29.7115 -4.88962 -22.3921  255 255 255
-36.2064 -4.01066 -20.8341  255 255 255
-33.2704 -4.46383 -21.9425  255 255 255
57.3485 -20.0568 -7.11145  255 255 255
27.183 -18.723 26.8632  255 255 255
74.2983 -25.3392 21.441  255 255 255
-44.4832 -3.80871 -22.5273  255 255 255
59.4161 -21.3998 -5.00826  255 255 255
69.832 -24.3508 10.7001  255 255 255
-53.0798 -2.7843 -24.4577  255 255 255
74.2242 -26.1058 20.7461  255 255 255
74.7386 -26.5025 21.3014  255 255 255
70.1095 -24.7942 5.52308  255 255 255
-36.745 -6.44283 -19.5367  255 255 255
59.7328 -22.7063 -4.67492  255 255 255
7.62483 -17.8586 36.3508  255 255 255
-37.3524 -6.93952 -19.6997  255 255 255
-6.09685 -15.6998 34.9597  255 255 255
3.78774 -17.4357 37.1556  255 255 255
18.5173 -19.4984 32.2872  255 255 255
-38.8984 -6.86012 -20.0189  255 255 255
-12.0718 -15.0075 31.4508  255 255 255
-39.0702 -7.66419 -18.5153  255 255 255
-33.4103 -8.75943 -17.4986  255 255 255
-44.8706 -6.98569 -19.2261  255 255 255
74.5307 -28.3022 19.1718  255 255 255
-43.813 -7.27718 -18.8833  255 255 255
-46.0069 -6.94294 -19.4705  255 255 255
75.1731 -28.5636 20.2882  255 255 255
-46.2326 -7.27637 -19.1549  255 255 255
26.1619 -21.7869 30.3395  255 255 255
53.8193 -24.3346 -2.09151  255 255 255
-34.136 -9.94811 -16.2834  255 255 255
-18.3414 -15.2226 27.5912  255 255 255
16.1118 -21.2012 33.8313  255 255 255
-44.745 -9.01066 -17.4579  255 255 255
-19.0569 -15.4006 26.1217  255 255 255
74.0005 -29.8718 16.3766  255 255 255
-16.3166 -16.1228 29.3469  255 255 255
18.4987 -21.9377 32.3653  255 255 255
-0.0185832 -19.2685 36.0299  255 255 255
-52.002 -8.78738 -17.8452  255 255 255
-51.9431 -8.79256 -17.4857  255 255 255
-41.1659 -10.9319 -15.5459  255 255 255
-40.8941 -11.1595 -15.6811  255 255 255
-37.1214 -11.9237 -14.3613  255 255 255
19.9942 -23.4881 32.2998  255 255 255
-16.7536 -17.476 30.1378  255 255 255
-23.0861 -16.3017 24.7659  255 255 255
-23.0861 -16.3017 24.7659  255 255 255
-17.3126 -17.4068 29.0851  255 255 255
22.9759 -24.3271 33.0004  255 255 255
19.111 -23.721 32.5352  255 255 255
-34.6146 -13.5829 -11.9473  255 255 255
63.1749 -30.5932 2.78971  255 255 255
19.3313 -24.825 33.8043  255 255 255
16.3119 -24.5005 33.6034  255 255 255
20.7482 -25.3532 34.2592  255 255 255
20.7482 -25.3532 34.2592  255 255 255
-39.5118 -14.6487 -10.8917  255 255 255
-23.2209 -18.1953 27.1224  255 255 255
48.8806 -29.9052 3.91668  255 255 255
-19.3072 -19.2635 28.3034  255 255 255
-19.3072 -19.2635 28.3034  255 255 255
-13.7351 -20.2771 32.4743  255 255 255
6.52557 -23.8426 37.0783  255 255 255
-12.7458 -20.5967 33.6624  255 255 255
2.45311 -23.3599 36.7201  255 255 255
-46.4744 -14.6313 -11.6283  255 255 255
-23.3449 -19.2267 26.2502  255 255 255
-46.7853 -15.1255 -11.2544  255 255 255
-41.9777 -15.9492 -10.1997  255 255 255
-3.76963 -22.8278 36.3614  255 255 255
18.3417 -26.5572 35.3881  255 255 255
2.67542 -24.0254 37.4524  255 255 255
-2.33613 -23.2159 36.6756  255 255 255
18.62 -26.9834 35.702  255 255 255
-23.1318 -19.9773 26.1468  255 255 255
7.16946 -25.1577 37.2604  255 255 255
-23.3801 -19.9735 25.5927  255 255 255
19.6521 -27.4605 36.4729  255 255 255
65.6023 -35.2455 10.2618  255 255 255
13.2352 -26.7946 35.9247  255 255 255
-15.3838 -21.9448 31.433  255 255 255
-10.8971 -22.7514 34.4014  255 255 255
-14.9318 -22.3103 31.6398  255 255 255
12.5357 -26.9917 36.0961  255 255 255
-51.0273 -16.9325 -9.41149  255 255 255
-45.6867 -18.0775 -8.49444  255 255 255
-15.1541 -22.9839 32.0946  255 255 255
-42.6518 -18.8156 -7.42642  255 255 255
66.7395 -37.6905 12.7606  255 255 255
-55.6174 -16.9636 -9.69108  255 255 255
-41.0861 -19.5211 -6.7221  255 255 255
52.5396 -35.5165 9.34187  255 255 255
-54.9247 -17.3145 -9.31721  255 255 255
12.0001 -28.1855 37.4285  255 255 255
-21.1384 -22.6269 31.9589  255 255 255
-57.9932 -17.4862 -9.03285  255 255 255
-50.5147 -18.8634 -7.14218  255 255 255
10.538 -28.5686 37.5245  255 255 255
-29.4461 -22.581 8.29955  255 255 255
-61.7847 -17.508 -7.3468  255 255 255
-51.4959 -19.441 -7.37223  255 255 255
58.7813 -38.7755 10.8519  255 255 255
-41.5605 -22.3662 -3.36292  255 255 255
8.90383 -29.8844 38.9637  255 255 255
-48.3494 -21.471 -4.72604  255 255 255
-11.0355 -26.7224 36.299  255 255 255
-45.907 -22.1895 -3.92732  255 255 255
-52.1493 -21.385 -4.89503  255 255 255
-63.9126 -19.7221 -6.84805  255 255 255
38.0544 -36.9806 12.817  255 255 255
-49.1409 -22.8236 -2.91828  255 255 255
-12.9993 -27.5869 35.7653  255 255 255
-7.4481 -28.499 37.8485  255 255 255
-47.9837 -23.4521 -2.69714  255 255 255
-10.7714 -28.1078 37.1826  255 255 255
0.263085 -29.9708 39.4349  255 255 255
0.263085 -29.9708 39.4349  255 255 255
3.05539 -30.4565 39.409  255 255 255
-12.0268 -27.8962 37.2923  255 255 255
-22.7007 -26.9805 21.819  255 255 255
-10.6323 -28.3718 37.1052  255 255 255
6.02917 -31.4841 38.2631  255 255 255
-61.7645 -21.775 -4.80178  255 255 255
-50.0696 -24.2186 -1.93941  255 255 255
-61.2596 -22.5129 -4.30374  255 255 255
-61.5487 -22.6439 -4.31438  255 255 255
-72.2479 -21.3688 -5.48609  255 255 255
-50.1628 -24.9503 -0.977697  255 255 255
-51.9261 -24.8073 -1.34051  255 255 255
3.02434 -32.6176 37.3466  255 255 255
-44.2345 -26.8768 1.67897  255 255 255
46.4267 -42.5158 17.1581  255 255 255
-38.3679 -28.3645 3.20821  255 255 255
20.6286 -37.4878 26.2881  255 255 255
45.9349 -43.2171 18.0381  255 255 255
48.8425 -43.8595 18.6358  255 255 255
16.2457 -37.6825 28.1698  255 255 255
-20.0544 -31.5597 23.5786  255 255 255
54.1083 -45.8997 21.2331  255 255 255
1.88836 -35.4008 34.3327  255 255 255
-50.5142 -29.3105 3.45083  255 255 255
-11.2916 -33.9916 31.3426  255 255 255
-29.6275 -32.7524 11.6152  255 255 255
-59.3274 -28.3874 2.04135  255 255 255
-59.3274 -28.3874 2.04135  255 255 255
-51.6946 -30.1674 4.09595  255 255 255
45.9785 -46.9701 22.0416  255 255 255
4.43015 -38.8596 31.9703  255 255 255
-59.459 -30.2679 3.98107  255 255 255
-39.6461 -33.4653 8.25771  255 255 255
-48.0178 -32.2099 6.94475  255 255 255
-2.8886 -37.6647 32.4042  255 255 255
2.81413 -39.52 31.4987  255 255 255
-45.6539 -33.3741 7.82755  255 255 255
41.8708 -48.7917 24.0383  255 255 255
-67.4949 -30.547 4.76782  255 255 255
41.7077 -48.996 24.2122  255 255 255
-49.0558 -34.0052 8.13957  255 255 255
33.7881 -48.0408 23.1087  255 255 255
0.209279 -41.4993 30.3573  255 255 255
24.182 -47.2999 26.0524  255 255 255
28.9137 -49.2048 24.1986  255 255 255
29.0167 -49.3033 24.0317  255 255 255
25.5164 -48.8237 25.9247  255 255 255
36.1932 -51.4013 26.9286  255 255 255
-16.9878 -41.0286 28.5628  255 255 255
-4.65459 -43.9159 31.1031  255 255 255
-2.70758 -44.5534 31.4736  255 255 255
23.9702 -50.9598 26.9683  255 255 255
-14.3419 -42.8686 29.321  255 255 255
34.4129 -53.6311 29.3982  255 255 255
-16.8266 -43.85 24.9425  255 255 255
-14.2921 -44.0949 27.7084  255 255 255
-43.8337 -40.6554 15.6116  255 255 255
-27.7804 -43.1057 20.1792  255 255 255
-48.5425 -40.3207 14.9944  255 255 255
-48.5425 -40.3207 14.9944  255 255 255
-43.5313 -41.2014 16.0338  255 255 255
-38.5542 -42.3898 17.4001  255 255 255
-56.3525 -39.8683 14.727  255 255 255
-36.6722 -43.1706 18.3334  255 255 255
-64.6441 -39.1672 14.1279  255 255 255
-29.6513 -45.1959 20.7363  255 255 255
32.0118 -56.2441 31.817  255 255 255
-54.8521 -41.6747 16.4415  255 255 255
-11.6332 -47.9336 27.1388  255 255 255
19.9821 -54.12 29.961  255 255 255
-1.91507 -49.7694 28.974  255 255 255
-11.7491 -48.2263 27.2711  255 255 255
18.7366 -54.209 30.4229  255 255 255
-6.29071 -49.2584 29.642  255 255 255
-50.4466 -44.3501 19.5902  255 255 255
-23.0807 -48.7149 24.5194  255 255 255
-45.0466 -45.3999 20.477  255 255 255
-51.0241 -44.6679 19.4875  255 255 255
-43.9327 -45.8331 20.8166  255 255 255
-25.6975 -48.5743 24.413  255 255 255
-28.7385 -48.1527 23.9247  255 255 255
-34.025 -47.5869 22.909  255 255 255
-28.3697 -48.5532 24.2439  255 255 255
-11.6423 -51.8797 29.7694  255 255 255
16.4605 -57.1576 33.9833  255 255 255
-35.9948 -48.7986 23.8231  255 255 255
-26.0585 -50.1919 26.1278  255 255 255
-42.5097 -47.9713 23.1062  255 255 255
-33.413 -49.3703 24.4649  255 255 255
35.7235 -61.633 37.1962  255 255 255
2.22364 -55.441 32.3737  255 255 255
42.6521 -63.6501 38.2654  255 255 255
34.9791 -61.9096 37.6517  255 255 255
-61.252 -46.3274 21.86  255 255 255
-25.4933 -52.0067 27.9517  255 255 255
-15.0399 -53.7554 29.6314  255 255 255
-59.0589 -46.9275 22.5134  255 255 255
-45.5937 -49.0664 24.49  255 255 255
-45.5937 -49.0664 24.49  255 255 255
2.19916 -56.7816 32.9515  255 255 255
24.4804 -60.9314 37.1118  255 255 255
-9.36536 -54.8385 30.7977  255 255 255
34.798 -63.1616 38.9707  255 255 255
-12.3689 -54.5008 30.3382  255 255 255
1.27182 -56.6969 33.4379  255 255 255
-50.0231 -48.6379 23.9008  255 255 255
-33.9492 -51.0221 26.8767  255 255 255
-45.5236 -49.4741 25.076  255 255 255
20.6097 -60.7584 36.44  255 255 255
-8.5519 -55.4807 31.3845  255 255 255
-8.01536 -55.7637 31.7931  255 255 255
-11.5144 -55.0477 31.7161  255 255 255
32.0837 -63.245 39.3717  255 255 255
32.0837 -63.245 39.3717  255 255 255
-50.6517 -49.1909 24.4794  255 255 255
-6.27029 -56.1693 32.3914  255 255 255
-46.4191 -49.9159 24.9746  255 255 255
-26.7553 -52.9495 28.8007  255 255 255
3.40299 -58.0937 34.6753  255 255 255
-14.7937 -55.0194 31.2394  255 255 255
18.4539 -60.8796 37.8832  255 255 255
4.26515 -58.5287 34.5723  255 255 255
1.66653 -57.9047 34.783  255 255 255
-33.138 -52.7032 28.8777  255 255 255
10.9382 -60.1173 37.0549  255 255 255
18.6852 -61.6933 38.8921  255 255 255
-33.6635 -53.144 28.7849  255 255 255
16.8774 -61.7338 38.6717  255 255 255
-46.8067 -51.3309 26.9469  255 255 255
-38.9467 -52.8041 28.1483  255 255 255
10.4026 -60.9071 37.9179  255 255 255
-27.9869 -54.5807 31.0444  255 255 255
14.8747 -62.3042 38.245  255 255 255
12.1709 -62.0249 38.3319  255 255 255
26.7651 -64.9012 41.7451  255 255 255
2.19018 -60.3064 37.2371  255 255 255
-3.30465 -59.3538 36.2747  255 255 255
11.1562 -62.1242 39.2902  255 255 255
-35.5591 -54.7898 30.9369  255 255 255
3.39387 -61.1907 38.3117  255 255 255
3.47091 -61.3758 37.8671  255 255 255
-58.2004 -51.3483 27.7858  255 255 255
10.1576 -62.4511 39.742  255 255 255
28.113 -66.1293 42.683  255 255 255
14.0408 -63.2464 40.5252  255 255 255
-26.571 -56.2998 32.8858  255 255 255
30.158 -66.7553 43.0929  255 255 255
-31.6807 -55.736 31.8563  255 255 255
9.17275 -63.1313 39.2256  255 255 255
-25.2285 -56.9755 33.8698  255 255 255
6.82496 -62.6788 39.712  255 255 255
-11.8127 -59.3657 36.5827  255 255 255
-29.6075 -56.7894 33.452  255 255 255
-10.7816 -60.1709 37.4775  255 255 255
7.23408 -63.7965 41.0351  255 255 255
-3.70466 -61.932 39.1293  255 255 255
7.60454 -64.7427 42.165  255 255 255
-25.1547 -59.4376 36.8313  255 255 255
-4.7655 -63.0269 40.637  255 255 255
-4.64266 -63.5279 41.21  255 255 255
-25.7288 -61.2895 38.1821  255 255 255
-29.232 -61.5262 38.2662  255 255 255
2.76192 65.2363 -60.6275  255 255 255
-3.66092 63.3451 -58.6452  255 255 255
56.0553 25.9021 18.4091  255 255 255
26.136 67.3534 -77.1955  255 255 255
55.1313 26.4482 16.7649  255 255 255
32.6717 66.8387 -82.4135  255 255 255
59.0715 69.7738 -98.8016  255 255 255
31.7992 64.283 -84.4018  255 255 255
23.7053 62.4264 -80.7148  255 255 255
-6.78717 57.6716 -61.5043  255 255 255
-28.1369 54.814 -48.2054  255 255 255
-36.2548 53.8632 -43.1484  255 255 255
-36.3694 54.1833 -43.959  255 255 255
-48.03 52.2658 -36.0259  255 255 255
-1.55646 57.2281 -65.5311  255 255 255
31.2178 60.5958 -87.1719  255 255 255
-49.0373 50.076 -37.471  255 255 255
19.0519 56.7485 -81.6866  255 255 255
12.4592 54.459 -78.8492  255 255 255
56.4496 29.7141 -24.9197  255 255 255
58.8725 26.9927 -19.9769  255 255 255
29.6986 49.2466 -78.5227  255 255 255
-43.09 46.139 -44.1251  255 255 255
58.382 26.4997 -20.8971  255 255 255
-53.558 44.2199 -38.0752  255 255 255
-56.3578 44.338 -37.3389  255 255 255
-5.47991 48.6319 -71.3588  255 255 255
-55.8068 43.8607 -36.6219  255 255 255
56.7886 14.9726 10.8256  255 255 255
-6.1136 46.8887 -69.1631  255 255 255
59.317 23.7211 -21.9613  255 255 255
-35.4202 43.2739 -52.0875  255 255 255
-54.7529 41.4042 -41.9851  255 255 255
-5.52251 41.9468 -71.0369  255 255 255
0.615221 39.7664 -69.0349  255 255 255
-50.0666 39.709 -46.157  255 255 255
-6.09263 38.6304 -65.8474  255 255 255
-6.09263 38.6304 -65.8474  255 255 255
-26.3352 40.0425 -62.394  255 255 255
-21.7403 40.489 -66.4979  255 255 255
5.35484 35.5032 -63.917  255 255 255
-53.7736 38.343 -45.1384  255 255 255
-1.31319 36.3984 -64.7717  255 255 255
48.6456 26.7947 -54.4138  255 255 255
31.3682 29.0466 -57.5553  255 255 255
62.3152 5.51285 16.9427  255 255 255
37.261 27.8356 -56.3363  255 255 255
35.5697 26.2779 -53.293  255 255 255
-61.6299 35.5537 -40.4358  255 255 255
-61.6299 35.5537 -40.4358  255 255 255
-20.8696 34.81 -63.6311  255 255 255
-41.3535 35.7105 -56.2411  255 255 255
-15.2486 33.3203 -61.4403  255 255 255
-58.8239 34.6091 -43.1822  255 255 255
-13.4654 32.4527 -60.0512  255 255 255
46.0024 22.1091 -49.75  255 255 255
46.0024 22.1091 -49.75  255 255 255
61.4879 4.25892 13.8953  255 255 255
-58.5267 34.3057 -43.9575  255 255 255
-57.765 34.3507 -44.9735  255 255 255
65.6816 1.44238 22.497  255 255 255
-24.2348 32.9507 -61.8218  255 255 255
-46.0614 33.6674 -54.5996  255 255 255
63.2294 2.15255 16.0515  255 255 255
-29.6646 33.0784 -63.1462  255 255 255
-49.1147 33.2022 -53.3911  255 255 255
-21.6566 30.486 -58.9695  255 255 255
64.5496 0.884383 18.4137  255 255 255
-53.6852 32.5999 -50.2672  255 255 255
-39.3776 33.1985 -61.6205  255 255 255
54.0396 6.96356 -3.89616  255 255 255
-59.9403 31.0783 -46.0892  255 255 255
-49.9606 31.4784 -53.9435  255 255 255
-49.9239 31.3235 -53.3127  255 255 255
-55.4175 30.6926 -48.4617  255 255 255
53.6513 14.6407 -42.3356  255 255 255
63.5828 0.168083 15.035  255 255 255
63.1242 0.0497757 15.6813  255 255 255
-45.8448 30.4866 -56.6558  255 255 255
-51.4364 29.8149 -52.8793  255 255 255
-57.6719 29.6233 -48.5106  255 255 255
3.75728 20.7848 -48.4849  255 255 255
-33.0202 27.3445 -55.1451  255 255 255
-44.6317 29.3969 -57.9323  255 255 255
-48.3916 29.0256 -55.1478  255 255 255
-66.9913 29.8502 -47.2353  255 255 255
-12.3114 21.9821 -49.602  255 255 255
-32.1836 25.2847 -52.4738  255 255 255
-49.0561 28.7372 -57.4468  255 255 255
55.0298 9.89505 -37.2767  255 255 255
-58.4531 28.0861 -49.8239  255 255 255
-31.9834 24.6738 -52.0269  255 255 255
53.9369 9.88019 -36.8488  255 255 255
-52.9075 28.2582 -55.0598  255 255 255
-52.443 27.2637 -54.007  255 255 255
-51.8188 27.6069 -56.0947  255 255 255
-33.8942 24.2681 -52.8436  255 255 255
-58.443 27.3614 -51.2307  255 255 255
-4.57963 3.03511 25.2441  255 255 255
-37.7144 23.8966 -51.3437  255 255 255
-59.7564 26.8337 -50.3703  255 255 255
-56.6585 26.439 -54.1249  255 255 255
-35.5659 21.6952 -49.4744  255 255 255
49.7058 6.50784 -33.8647  255 255 255
-19.9678 18.186 -45.725  255 255 255
-76.4864 24.7792 -36.6067  255 255 255
-76.4864 24.7792 -36.6067  255 255 255
-72.7524 24.9592 -42.838  255 255 255
-38.4623 20.562 -48.1149  255 255 255
-59.3146 23.9995 -50.3428  255 255 255
-29.9522 18.973 -47.1634  255 255 255
49.3072 4.95294 -32.4644  255 255 255
-7.20874 0.651249 27.4377  255 255 255
66.8738 -6.82675 18.073  255 255 255
-70.556 24.9518 -48.6079  255 255 255
55.9133 -1.4081 -5.89468  255 255 255
52.6305 0.147938 -13.7974  255 255 255
66.3184 -7.60761 16.4306  255 255 255
-43.3972 18.9731 -47.0233  255 255 255
-56.9583 20.5474 -48.3452  255 255 255
48.8129 1.61721 -28.1977  255 255 255
-72.8783 21.8985 -46.3618  255 255 255
11.2388 -4.90311 32.8292  255 255 255
