ply
format ascii 1.0
element vertex 1257
property float x
property float y
property float z
property uchar red
property uchar green
property uchar blue
end_header
-61.3426 42.8982 -46.4074  255 255 255
-42.45 47.8534 -59.9306  255 255 255
-41.8966 47.131 -61.6025  255 255 255
-55.4935 44.9843 -52.4555  255 255 255
46.4137 22.4809 19.8133  255 255 255
-48.9907 43.9574 -54.8398  255 255 255
-42.5305 45.8712 -62.2049  255 255 255
46.2968 23.5013 12.9485  255 255 255
45.2313 23.4497 11.6551  255 255 255
-23.2496 49.8312 -79.6677  255 255 255
-51.6462 42.7866 -57.6311  255 255 255
-51.1538 42.3694 -59.936  255 255 255
-51.499 41.2059 -58.6871  255 255 255
-51.4305 42.1825 -58.6181  255 255 255
-4.42578 53.4419 -99.5094  255 255 255
-4.67552 53.0839 -98.2844  255 255 255
-80.6093 40.3153 -48.4865  255 255 255
-52.31 41.6577 -60.1622  255 255 255
51.2876 30.4908 -19.672  255 255 255
-71.8367 36.9932 -44.949  255 255 255
-71.6189 37.9577 -43.7548  255 255 255
52.6399 29.5082 -18.9134  255 255 255
-40.1216 43.0426 -71.5103  255 255 255
50.2803 27.4382 -12.4874  255 255 255
48.1877 17.3009 18.55  255 255 255
54.6397 26.6849 -16.254  255 255 255
52.3391 26.8756 -17.3169  255 255 255
-69.3267 36.1999 -49.8703  255 255 255
50.2407 30.8879 -29.1012  255 255 255
59.7633 15.8013 26.7308  255 255 255
-138.836 56.2785 -120.947  255 255 255
52.6149 26.6097 -17.7651  255 255 255
52.3682 27.0563 -16.8561  255 255 255
47.8625 16.9014 17.0087  255 255 255
-82.0927 34.5936 -45.3921  255 255 255
-83.6021 34.9336 -47.2074  255 255 255
-64.4346 35.4212 -54.6358  255 255 255
-57.9623 35.8103 -57.5163  255 255 255
55.774 15.0721 25.716  255 255 255
-82.3558 34.1346 -48.6532  255 255 255
55.3394 11.8315 30.5477  255 255 255
54.3296 14.039 31.2422  255 255 255
57.2064 12.1611 31.2032  255 255 255
51.939 43.3593 -91.6611  255 255 255
-58.6517 35.0702 -64.8788  255 255 255
-34.6797 37.2899 -81.5236  255 255 255
-82.3416 31.6844 -49.9164  255 255 255
-77.1617 31.9274 -55.4809  255 255 255
-70.6995 29.5133 -50.6179  255 255 255
-70.2674 31.4525 -56.7784  255 255 255
-123.151 42.432 -99.4045  255 255 255
47.7026 13.8511 9.84066  255 255 255
46.8544 14.8954 10.2981  255 255 255
50.7122 13.389 16.1008  255 255 255
54.188 11.4576 26.2787  255 255 255
46.7204 14.6486 10.1072  255 255 255
58.6911 13.52 21.183  255 255 255
-3.83336 35.029 -84.5228  255 255 255
58.3663 10.1549 30.8992  255 255 255
58.3256 9.8573 32.2133  255 255 255
3.87933 33.0364 -78.2988  255 255 255
52.516 11.3799 17.8408  255 255 255
1.99844 33.2437 -80.7216  255 255 255
45.6069 14.6006 9.85357  255 255 255
-85.8418 26.5493 -54.5978  255 255 255
4.14172 31.838 -75.8632  255 255 255
-45.2271 31.1929 -74.7715  255 255 255
48.62 13.8605 0.645336  255 255 255
2.56877 29.7956 -71.4461  255 255 255
4.60671 29.8544 -77.7085  255 255 255
5.1879 30.1237 -73.9971  255 255 255
55.2376 10.4421 23.8426  255 255 255
-38.2961 28.7259 -72.3815  255 255 255
-9.10471 29.4868 -74.0239  255 255 255
-9.44786 29.3148 -75.9113  255 255 255
5.67197 29.1848 -73.0109  255 255 255
-12.7322 27.8765 -73.3041  255 255 255
-112.705 31.2499 -79.8177  255 255 255
-79.2076 24.137 -52.2078  255 255 255
37.5761 26.9497 -68.3779  255 255 255
-36.017 27.6807 -72.9635  255 255 255
-82.5188 22.5211 -48.5353  255 255 255
-110.887 27.3628 -74.8352  255 255 255
57.0835 4.92535 34.257  255 255 255
-80.521 20.772 -48.7234  255 255 255
50.1475 9.47205 11.4848  255 255 255
57.0045 4.57904 33.1733  255 255 255
-10.4955 23.5058 -65.9571  255 255 255
25.7197 27.0172 -73.1344  255 255 255
-84.7693 20.8889 -55.862  255 255 255
57.3888 4.57958 29.9956  255 255 255
57.6247 4.58479 31.7946  255 255 255
-18.2183 22.0154 -66.6225  255 255 255
57.9068 3.80101 29.9061  255 255 255
58.4525 4.48331 31.8405  255 255 255
56.9895 4.6181 31.4852  255 255 255
56.0596 3.49471 33.988  255 255 255
61.614 6.31944 26.8998  255 255 255
61.5643 6.80056 26.2838  255 255 255
-53.3709 17.4666 -52.6847  255 255 255
50.7873 9.89381 -10.5387  255 255 255
50.3587 6.76207 6.57416  255 255 255
54.3922 4.96472 17.9141  255 255 255
60.8037 5.25448 26.4049  255 255 255
57.2324 3.05811 30.4327  255 255 255
-10.2795 15.8451 -56.7774  255 255 255
49.4374 6.41574 4.21071  255 255 255
48.8903 5.96056 5.33962  255 255 255
63.8438 6.18875 0.491391  255 255 255
48.8876 4.52687 4.40488  255 255 255
-15.535 12.6231 -53.1638  255 255 255
55.3322 3.95194 16.9022  255 255 255
54.5873 3.52024 18.1255  255 255 255
-2.68381 1.73472 24.3372  255 255 255
56.171 0.24227 30.4799  255 255 255
57.7757 0.30548 27.5777  255 255 255
-49.4736 10.1301 -44.0638  255 255 255
53.7515 2.15053 14.3222  255 255 255
52.5714 2.5895 15.1811  255 255 255
-39.8431 9.46375 -45.4567  255 255 255
54.3 1.04401 18.954  255 255 255
-22.9051 9.68818 -47.5567  255 255 255
-71.429 5.11337 -21.603  255 255 255
-43.7053 8.4307 -46.1617  255 255 255
48.0885 2.96557 1.61177  255 255 255
-39.6374 7.15122 -47.4123  255 255 255
-36.6334 7.91732 -42.2372  255 255 255
-41.3489 7.0142 -41.6073  255 255 255
59.6557 -0.964581 27.6296  255 255 255
52.0886 1.14965 5.63502  255 255 255
-116.357 7.35891 -41.941  255 255 255
-10.6841 -2.58278 25.8964  255 255 255
54.4774 -0.353421 9.92731  255 255 255
-26.5611 5.48274 -41.9474  255 255 255
54.0018 -1.26999 13.4689  255 255 255
55.4816 -1.53262 12.0822  255 255 255
-64.2902 4.4427 -37.1737  255 255 255
-45.2285 3.71351 -35.7731  255 255 255
56.2958 -1.18929 11.8896  255 255 255
54.1129 -1.97811 18.1176  255 255 255
55.1711 -1.57089 16.9722  255 255 255
55.4975 -3.29054 24.5852  255 255 255
54.3075 -4.29046 17.8783  255 255 255
55.7513 -2.85576 20.087  255 255 255
54.2371 -3.43187 20.7884  255 255 255
-15.1419 -1.97238 15.9897  255 255 255
54.0183 -3.35509 14.0344  255 255 255
54.244 -2.95299 13.0866  255 255 255
-15.7623 -3.16408 14.6708  255 255 255
58.449 -5.11266 27.0596  255 255 255
59.0214 -4.83856 25.9184  255 255 255
58.8446 -4.70223 24.1442  255 255 255
53.6934 -4.25895 16.3861  255 255 255
54.1274 -4.52103 13.9831  255 255 255
56.56 -4.02267 19.7312  255 255 255
54.6082 -4.66586 19.595  255 255 255
-5.97396 -5.57782 35.3421  255 255 255
52.5071 -3.23892 1.6823  255 255 255
-16.3999 -4.75209 16.7377  255 255 255
50.9107 -3.79272 -2.77188  255 255 255
51.2037 -2.83769 -3.70179  255 255 255
55.5543 -6.21111 19.9253  255 255 255
56.4062 -5.03417 20.6664  255 255 255
56.8391 -5.91772 24.6566  255 255 255
12.0423 -5.9055 27.5801  255 255 255
58.5233 -5.58019 20.4556  255 255 255
55.5337 -6.36721 13.3042  255 255 255
-41.7081 -1.70645 -29.7101  255 255 255
57.7932 -5.45197 17.8389  255 255 255
55.5499 -6.47009 18.5448  255 255 255
-41.503 -2.58602 -31.735  255 255 255
51.8185 -2.91684 -16.3807  255 255 255
57.7791 -6.97232 15.1158  255 255 255
57.4222 -6.59314 19.8195  255 255 255
50.5015 -4.76516 -10.6112  255 255 255
-38.4284 -4.34315 -27.6974  255 255 255
-3.00177 -7.71825 37.3802  255 255 255
53.9739 -6.74824 9.95264  255 255 255
56.3031 -7.15253 17.996  255 255 255
52.4451 -4.3164 -22.9817  255 255 255
54.599 -7.28734 10.4227  255 255 255
55.2855 -7.83767 9.64479  255 255 255
-7.52539 -8.89945 38.2175  255 255 255
-41.7196 -6.1795 -25.7001  255 255 255
54.4442 -9.2658 6.01064  255 255 255
62.7654 -7.54611 -6.96697  255 255 255
-64.7131 -6.60766 -26.1267  255 255 255
55.6657 -8.51871 11.7945  255 255 255
-0.403648 -10.2796 39.9681  255 255 255
55.314 -9.60951 10.1103  255 255 255
1.26952 -10.6723 37.8589  255 255 255
60.1476 -10.457 23  255 255 255
-59.0697 -7.83963 -23.0473  255 255 255
54.6584 -9.75336 8.66677  255 255 255
55.6027 -9.811 10.9502  255 255 255
59.277 -11.0201 24.1508  255 255 255
54.8768 -10.2143 6.1868  255 255 255
60.7263 -11.7376 25.1256  255 255 255
56.8347 -10.5815 14.4265  255 255 255
55.4634 -11.2444 3.84181  255 255 255
51.1812 -10.7484 -24.0173  255 255 255
57.4645 -11.5667 14.6971  255 255 255
57.6445 -12.156 14.9451  255 255 255
-98.0249 -9.89756 -20.3948  255 255 255
-41.9858 -9.89872 -19.4966  255 255 255
-14.2766 -11.5028 33.4564  255 255 255
6.63458 -12.801 34.7488  255 255 255
56.4539 -11.8691 10.1651  255 255 255
59.0665 -13.0278 23.861  255 255 255
58.3852 -12.6934 15.9716  255 255 255
44.7834 -11.3665 -19.6235  255 255 255
51.8989 -11.7227 -11.0889  255 255 255
55.1263 -11.7919 -11.2065  255 255 255
56.034 -13.1248 8.89397  255 255 255
56.79 -13.0082 9.71257  255 255 255
10.9582 -13.461 37.4282  255 255 255
57.6808 -12.8921 15.1855  255 255 255
-47.3008 -12.3659 -18.1979  255 255 255
56.5632 -13.5433 11.5058  255 255 255
-52.6374 -12.2625 -17.3235  255 255 255
-54.497 -12.293 -16.5563  255 255 255
-15.8439 -13.2593 30.1048  255 255 255
-44.6095 -12.2956 -15.998  255 255 255
12.5979 -15.2943 36.6298  255 255 255
56.6268 -14.0291 9.9195  255 255 255
56.1991 -14.6836 10.2918  255 255 255
60.3597 -13.3758 25.6441  255 255 255
59.8202 -13.0364 24.9741  255 255 255
53.8833 -13.3551 1.8589  255 255 255
54.0474 -13.9436 2.2536  255 255 255
62.2845 -13.7781 8.53369  255 255 255
57.576 -13.6196 14.8882  255 255 255
56.9296 -13.6547 14.9348  255 255 255
-54.1631 -13.0838 -15.0259  255 255 255
49.3615 -13.0076 -19.1772  255 255 255
-54.814 -12.9417 -15.5843  255 255 255
55.7003 -14.3686 2.08637  255 255 255
55.8961 -13.8008 3.89697  255 255 255
-58.9403 -13.2021 -17.2111  255 255 255
60.7158 -14.4785 24.975  255 255 255
-52.6179 -14.709 -16.1033  255 255 255
55.1123 -14.0851 -16.5087  255 255 255
-44.2824 -15.1707 -12.9996  255 255 255
55.5888 -14.8657 -1.70503  255 255 255
60.8052 -15.4219 28.161  255 255 255
-45.4214 -14.4241 -12.4929  255 255 255
56.7334 -15.2214 -10.4628  255 255 255
57.8934 -14.6343 -13.3344  255 255 255
56.8849 -16.0142 11.3398  255 255 255
59.1255 -16.3805 13.1964  255 255 255
55.7513 -15.6906 -3.5002  255 255 255
-62.4578 -16.5792 -13.7504  255 255 255
57.3352 -15.9879 6.53948  255 255 255
57.3907 -18.0036 10.5483  255 255 255
58.3784 -16.2518 11.0192  255 255 255
57.3731 -17.054 11.1378  255 255 255
55.7445 -18.3306 3.90987  255 255 255
4.20144 -15.4718 36.1655  255 255 255
20.49 -16.8849 20.7562  255 255 255
11.6052 -17.2286 33.9949  255 255 255
-47.6274 -18.1754 -11.4967  255 255 255
-47.3104 -17.4967 -10.805  255 255 255
-12.9037 -16.9093 35.8412  255 255 255
-54.742 -17.962 -9.33339  255 255 255
-22.3299 -17.5305 29.4673  255 255 255
-13.6839 -17.4311 33.3532  255 255 255
5.25986 -18.2991 41.2921  255 255 255
-50.2356 -17.9072 -1.68211  255 255 255
-48.4127 -18.1925 -9.24968  255 255 255
60.6937 -18.9589 5.30501  255 255 255
58.3691 -18.58 10.4029  255 255 255
-54.0047 -19.3743 -9.5544  255 255 255
11.094 -19.0442 36.4874  255 255 255
-43.7942 -20.3622 -7.22087  255 255 255
61.4301 -19.6287 14.0916  255 255 255
-42.8076 -19.801 -8.23811  255 255 255
-21.8601 -19.7425 30.2852  255 255 255
-21.9768 -19.3225 30.2996  255 255 255
-0.656012 -18.35 40.7175  255 255 255
-0.910002 -18.3812 41.9687  255 255 255
63.9983 -20.6336 -6.56276  255 255 255
57.2099 -20.4126 3.56014  255 255 255
61.9315 -19.7435 20.0627  255 255 255
-56.449 -22.0755 -5.98073  255 255 255
58.3995 -23.2301 4.81639  255 255 255
-49.0211 -24.2259 -1.26545  255 255 255
12.4711 -21.6574 37.893  255 255 255
45.6807 -25.1037 -4.35905  255 255 255
61.3553 -24.078 11.928  255 255 255
-10.941 -23.484 38.0846  255 255 255
-47.9404 -25.4711 7.73371  255 255 255
59.078 -26.2947 2.72013  255 255 255
-46.9262 -25.3975 6.4158  255 255 255
62.076 -27.7398 17.6838  255 255 255
61.3432 -27.4879 16.9338  255 255 255
0.293288 -23.647 41.776  255 255 255
6.0987 -23.6196 35.7291  255 255 255
0.933408 -23.8574 38.8165  255 255 255
-24.2289 -26.8959 21.1544  255 255 255
-5.20859 -24.1349 41.6484  255 255 255
10.2489 -24.8572 39.5349  255 255 255
62.9224 -26.4631 18.4023  255 255 255
3.35005 -25.0326 37.4372  255 255 255
72.297 -29.2206 -2.04807  255 255 255
63.6321 -27.1048 23.7851  255 255 255
61.0691 -30.0811 5.03926  255 255 255
-10.9769 -25.1828 40.9235  255 255 255
-49.037 -29.8783 4.72717  255 255 255
-10.0563 -26.6447 41.29  255 255 255
63.3427 -29.6658 18.4775  255 255 255
9.00385 -26.739 41.1542  255 255 255
-48.9323 -29.3556 15.3106  255 255 255
-13.2365 -26.1303 41.4826  255 255 255
-19.2145 -28.1512 30.5884  255 255 255
-9.84953 -27.9396 40.1135  255 255 255
12.2542 -27.8988 41.0562  255 255 255
-12.5863 -27.1858 41.9963  255 255 255
-11.8093 -26.7711 42.6931  255 255 255
63.4344 -31.7012 21.4099  255 255 255
-46.5669 -32.0392 18.869  255 255 255
10.1708 -29.0538 41.2722  255 255 255
63.8939 -32.4526 9.0458  255 255 255
63.294 -33.9688 21.1883  255 255 255
-8.86362 -29.5537 39.266  255 255 255
1.8866 -29.9634 38.7762  255 255 255
4.99989 -29.9894 45.0759  255 255 255
1.66242 -31.2144 43.3033  255 255 255
11.4573 -33.7835 36.4859  255 255 255
-11.1657 -35.2205 34.8339  255 255 255
-6.19456 -35.1704 36.6186  255 255 255
12.3996 -36.8457 31.6322  255 255 255
14.5973 -37.8524 30.7614  255 255 255
17.4235 -39.1007 31.5871  255 255 255
58.189 -45.5756 13.3238  255 255 255
21.4192 -42.8699 26.3615  255 255 255
20.5233 -43.3397 27.9861  255 255 255
-4.98771 -42.2089 36.8457  255 255 255
27.4301 -46.7747 27.035  255 255 255
26.8659 -48.6076 29.3557  255 255 255
58.2896 -51.9205 18.3558  255 255 255
-29.5926 -47.5305 29.3964  255 255 255
53.4117 -51.9304 21.8171  255 255 255
-28.3162 -49.312 31.3981  255 255 255
51.7738 -54.497 23.4038  255 255 255
-18.9061 -50.9094 34.9183  255 255 255
-19.0587 -51.4914 35.1319  255 255 255
-23.5069 -50.8906 33.981  255 255 255
21.1266 -52.5989 35.4171  255 255 255
-15.7673 -53.8698 36.1016  255 255 255
-13.382 -53.5607 36.322  255 255 255
-30.5746 -49.2524 43.9642  255 255 255
1.0842 -52.5382 37.3187  255 255 255
-8.13802 -52.9924 38.4373  255 255 255
-14.3815 -54.1428 38.1515  255 255 255
2.01418 -54.7521 39.1549  255 255 255
-5.86262 -53.6103 41.0291  255 255 255
-3.73327 -53.2117 40.6171  255 255 255
-10.7243 -54.203 37.7895  255 255 255
-1.78105 -53.686 39.4119  255 255 255
54.4067 -59.0165 26.5141  255 255 255
28.9193 -56.0618 36.647  255 255 255
50.2611 48.5417 -6.47255  255 255 255
-67.5995 54.8039 -21.8632  255 255 255
37.2235 86.6488 -95.0388  255 255 255
79.0187 100.387 -125.648  255 255 255
82.7254 100.44 -126.125  255 255 255
24.3227 82.1991 -88.1421  255 255 255
36.3682 85.5753 -96.1728  255 255 255
-126.088 81.3623 -86.1885  255 255 255
-52.0227 59.4668 -36.034  255 255 255
53.4704 45.3717 -3.28446  255 255 255
52.5999 45.4143 -1.27361  255 255 255
-77.3384 53.4061 -20.0043  255 255 255
-29.215 66.3857 -53.847  255 255 255
-27.8543 65.1977 -52.0025  255 255 255
60.4288 91.264 -110.866  255 255 255
-29.9708 64.6486 -51.8332  255 255 255
-29.5754 66.1236 -53.4694  255 255 255
-4.57777 71.967 -72.744  255 255 255
29.979 80.6026 -95.1945  255 255 255
29.9287 79.8164 -93.5413  255 255 255
-59.0318 56.3435 -35.6527  255 255 255
31.1377 80.2021 -96.9841  255 255 255
31.4957 81.7844 -100.113  255 255 255
31.9551 81.4373 -99.7437  255 255 255
-7.00638 69.3487 -71.4162  255 255 255
36.1629 78.7126 -91.1902  255 255 255
42.3326 94.7073 -132.584  255 255 255
53.0524 42.5315 -4.3919  255 255 255
52.1465 42.562 -5.31381  255 255 255
14.5555 78.0078 -94.4759  255 255 255
20.4334 78.7627 -98.0027  255 255 255
-79.6161 51.2717 -25.858  255 255 255
-79.0202 49.5113 -22.8412  255 255 255
-79.8839 49.7382 -21.9504  255 255 255
79.5667 93.8901 -134.682  255 255 255
56.1801 44.099 -9.76697  255 255 255
47.4332 31.8801 21.4326  255 255 255
47.3866 31.1746 20.4621  255 255 255
-22.493 62.8196 -63.8952  255 255 255
52.389 44.8293 -16.89  255 255 255
32.7861 77.1625 -102.679  255 255 255
46.5458 32.0714 16.4334  255 255 255
45.0914 30.4766 19.9383  255 255 255
-5.0452 64.8757 -78.308  255 255 255
-4.79524 65.3569 -78.3445  255 255 255
-83.5775 50.9308 -39.0901  255 255 255
-76.7764 46.5855 -26.1581  255 255 255
-7.2123 64.2292 -79.0765  255 255 255
-147.48 90.0257 -136.402  255 255 255
-61.0567 49.2423 -39.6829  255 255 255
-111.615 63.3572 -74.577  255 255 255
-74.4576 45.5785 -28.9949  255 255 255
-82.8069 45.3786 -29.4397  255 255 255
54.6202 25.0138 28.0648  255 255 255
46.6849 28.0451 18.0429  255 255 255
52.809 26.2738 23.2604  255 255 255
-5.89393 61.7598 -82.7387  255 255 255
50.0958 39.8004 -18.5792  255 255 255
49.442 39.921 -19.1949  255 255 255
77.5036 89.2422 -161.281  255 255 255
-42.2106 51.7076 -57.4853  255 255 255
51.8908 22.4966 32.0014  255 255 255
-29.8424 54.7677 -68.629  255 255 255
49.3372 38.2717 -20.3176  255 255 255
-44.2984 50.3246 -57.3462  255 255 255
-39.1917 51.4516 -61.7846  255 255 255
-34.5293 53.0233 -66.2304  255 255 255
-64.524 45.1673 -42.2682  255 255 255
-76.0021 44.0066 -36.9483  255 255 255
-83.0032 40.8 -30.2157  255 255 255
-42.3578 48.5836 -61.8803  255 255 255
46.2884 24.2488 14.1102  255 255 255
-50.8788 46.1067 -56.4097  255 255 255
52.2404 23.5129 17.7806  255 255 255
-58.4563 43.1175 -50.6394  255 255 255
-38.1672 47.9469 -66.5607  255 255 255
-4.44563 55.8733 -92.7796  255 255 255
8.51308 60.9956 -111.981  255 255 255
-52.368 42.0397 -57.0084  255 255 255
-145.245 64.549 -128.657  255 255 255
49.0192 19.5295 21.0691  255 255 255
-137.279 63.2934 -127.263  255 255 255
-28.2527 47.3825 -82.1714  255 255 255
48.4752 34.3254 -35.5656  255 255 255
59.4572 33.0442 -29.4324  255 255 255
-6.10761 49.7954 -99.79  255 255 255
-51.8446 39.9149 -64.4154  255 255 255
-51.5693 38.5593 -64.0045  255 255 255
26.7085 48.1655 -99.3814  255 255 255
26.6684 47.6381 -100.355  255 255 255
-135.898 53.0379 -113.99  255 255 255
-126.459 52.1528 -112.172  255 255 255
51.8496 26.9016 -21.9665  255 255 255
-55.4194 37.893 -63.1282  255 255 255
54.5364 12.2745 29.1184  255 255 255
-35.5985 39.6083 -79.3694  255 255 255
-56.1957 36.3833 -62.3888  255 255 255
52.7329 14.8159 20.2204  255 255 255
68.5401 35.5314 -62.603  255 255 255
61.1681 30.0282 -42.7044  255 255 255
46.6917 15.7436 13.8567  255 255 255
48.3384 15.8691 15.9564  255 255 255
-27.3401 41.2104 -89.1389  255 255 255
26.2644 41.1414 -91.7057  255 255 255
1.93881 41.1306 -88.8884  255 255 255
46.679 14.9237 14.0962  255 255 255
-33.8427 38.3099 -86.2984  255 255 255
-82.2774 31.3247 -53.8821  255 255 255
-82.5784 30.7672 -52.847  255 255 255
-84.5831 30.1972 -53.1308  255 255 255
-66.2778 29.9029 -54.0025  255 255 255
61.6972 26.7232 -41.698  255 255 255
-63.8789 30.9893 -66.4095  255 255 255
-46.6279 33.9389 -79.888  255 255 255
-8.27589 33.8781 -80.8918  255 255 255
-8.50805 35.3406 -83.1721  255 255 255
53.3673 10.6389 24.1017  255 255 255
4.24374 34.462 -83.5232  255 255 255
-78.4267 27.4471 -50.502  255 255 255
-85.0414 27.7556 -56.1069  255 255 255
-82.0026 27.1506 -58.2767  255 255 255
-83.9361 24.7565 -53.7423  255 255 255
3.16756 28.6431 -72.1244  255 255 255
48.1683 13.2469 2.46186  255 255 255
26.8777 26.3403 -68.1345  255 255 255
-114.208 29.4748 -77.6289  255 255 255
24.3941 27.3186 -79.7997  255 255 255
48.7752 10.7039 6.18817  255 255 255
50.629 10.0303 8.09387  255 255 255
48.567 9.48116 7.97323  255 255 255
-117.347 27.5738 -75.0274  255 255 255
48.0703 10.6979 3.52473  255 255 255
-21.4464 22.1922 -66.0808  255 255 255
50.5494 8.54234 11.7727  255 255 255
-82.2208 20.4108 -51.0726  255 255 255
50.7207 9.15225 8.2981  255 255 255
51.192 7.7249 12.261  255 255 255
53.3281 7.6276 15.6069  255 255 255
50.6355 9.82237 5.12748  255 255 255
48.7172 8.31655 1.50775  255 255 255
47.787 9.25668 1.70231  255 255 255
48.7283 7.26565 7.0218  255 255 255
-13.0924 17.9617 -61.6354  255 255 255
47.993 8.73135 -4.0348  255 255 255
-20.1974 16.229 -52.5633  255 255 255
52.0641 4.462 14.6082  255 255 255
52.1995 5.86644 14.9711  255 255 255
-56.4313 17.1623 -57.7984  255 255 255
-54.8263 14.6572 -51.9961  255 255 255
49.3817 7.19732 5.8373  255 255 255
48.4944 6.46082 0.942866  255 255 255
-1.16872 2.4887 21.9647  255 255 255
-52.0583 12.7243 -49.353  255 255 255
-50.549 13.2906 -49.5097  255 255 255
49.5538 3.88572 2.49846  255 255 255
-3.09756 1.36725 23.8698  255 255 255
55.4405 1.32136 14.6136  255 255 255
63.2341 2.78464 -0.557523  255 255 255
54.4265 0.0266847 15.6815  255 255 255
54.4523 0.622851 13.8561  255 255 255
7.7486 -2.02506 31.1266  255 255 255
51.7798 0.330247 9.33873  255 255 255
49.8872 0.504263 0.102953  255 255 255
54.995 0.103855 13.6734  255 255 255
54.9877 -0.658718 17.3239  255 255 255
53.6383 -1.01012 11.8008  255 255 255
-6.35743 -3.74688 33.9803  255 255 255
-120.062 7.08369 -48.1255  255 255 255
-120.185 7.9198 -48.9363  255 255 255
55.0161 -0.711491 15.8523  255 255 255
54.9711 -0.153745 18.1995  255 255 255
-36.7688 5.26366 -38.1037  255 255 255
54.3448 -1.34546 13.8131  255 255 255
-43.7348 3.62548 -38.6534  255 255 255
51.4228 -1.08685 7.50219  255 255 255
-37.431 4.33347 -38.6543  255 255 255
52.2536 -2.12747 14.1932  255 255 255
51.0363 -1.87726 5.65187  255 255 255
51.7019 -1.17113 4.67136  255 255 255
55.7267 -3.28451 24.1083  255 255 255
54.303 -2.73635 14.9834  255 255 255
56.9631 -4.28032 20.8206  255 255 255
55.5765 -3.28641 20.5749  255 255 255
-12.1758 -4.82059 27.3162  255 255 255
57.8041 -4.09481 25.1624  255 255 255
57.5914 -4.16486 25.5522  255 255 255
-44.5594 1.73407 -35.1381  255 255 255
-6.55834 -4.77318 34.25  255 255 255
55.7457 -3.01519 16.7903  255 255 255
52.1102 -2.65348 4.03101  255 255 255
56.1526 -3.49065 18.6679  255 255 255
56.3467 -3.59605 22.1204  255 255 255
52.5666 -3.15913 6.31329  255 255 255
54.2987 -3.39492 4.7871  255 255 255
53.1295 -2.43465 4.94716  255 255 255
54.838 -4.12797 17.5594  255 255 255
55.1077 -3.78798 16.6292  255 255 255
56.0601 -4.17392 18.1728  255 255 255
-16.8484 -4.19857 16.7767  255 255 255
56.7405 -4.14285 15.6203  255 255 255
-7.38547 -6.68057 36.9547  255 255 255
55.5157 -4.99427 17.1891  255 255 255
57.5628 -6.10421 23.0563  255 255 255
58.1318 -7.32076 22.5202  255 255 255
55.89 -5.72112 16.0304  255 255 255
-42.5508 -2.07392 -31.015  255 255 255
56.7677 -6.36004 20.6178  255 255 255
-107.191 -2.79206 -32.4573  255 255 255
-13.659 -6.6821 29.1506  255 255 255
56.4669 -6.68172 19.865  255 255 255
54.5708 -6.4506 -4.0146  255 255 255
57.317 -8.04044 21.2023  255 255 255
56.5882 -6.89914 15.5698  255 255 255
-41.722 -4.58771 -26.8676  255 255 255
5.88166 -7.59427 34.0974  255 255 255
56.9644 -7.48932 20.0701  255 255 255
58.7395 -8.0183 26.1441  255 255 255
-8.76509 -8.83135 36.2355  255 255 255
55.422 -8.50904 13.1398  255 255 255
57.7359 -8.6451 18.5718  255 255 255
58.2958 -8.95464 21.5266  255 255 255
54.4099 -7.95218 9.37729  255 255 255
4.88453 -9.33967 37.7353  255 255 255
-8.55467 -10.1149 35.4989  255 255 255
0.391027 -9.71654 39.2579  255 255 255
0.659535 -8.80722 40.378  255 255 255
52.4127 -8.11788 -0.0152864  255 255 255
58.9602 -10.5036 20.9509  255 255 255
6.20179 -11.1041 39.4901  255 255 255
55.141 -9.64516 6.71282  255 255 255
59.4004 -11.1692 28.9946  255 255 255
49.2347 -8.76016 -14.5404  255 255 255
50.3278 -7.03063 -15.5473  255 255 255
56.144 -6.99467 -20.4382  255 255 255
55.6794 -10.1554 11.9918  255 255 255
59.5018 -7.67575 -48.7507  255 255 255
50.8452 -8.43762 -21.3548  255 255 255
-18.9 -10.8162 24.0807  255 255 255
-6.84033 -11.4877 39.2655  255 255 255
55.5918 -10.4957 12.4468  255 255 255
-24.7429 -11.3333 20.0676  255 255 255
56.3011 -11.6089 10.6078  255 255 255
55.5082 -11.7623 6.43037  255 255 255
54.5195 -12.0038 6.73044  255 255 255
-19.1863 -10.7084 27.0144  255 255 255
-17.5316 -11.2908 26.9087  255 255 255
-2.49823 -12.1046 40.1181  255 255 255
5.67421 -12.3549 39.2247  255 255 255
5.98672 -12.1956 39.749  255 255 255
-57.7991 -10.7173 -20.2744  255 255 255
56.6569 -11.8696 13.5428  255 255 255
-23.6227 -12.0353 21.7849  255 255 255
55.9315 -12.5886 8.89036  255 255 255
59.9806 -13.0274 26.8444  255 255 255
-14.7107 -13.4893 31.4299  255 255 255
59.8395 -12.4489 20.9321  255 255 255
58.9514 -13.6166 21.1667  255 255 255
-22.2132 -11.913 23.0958  255 255 255
56.7777 -13.1695 13.1557  255 255 255
56.6994 -14.4529 8.12421  255 255 255
-18.2809 -13.504 29.8706  255 255 255
-61.242 -13.3129 -14.1573  255 255 255
57.9574 -14.1838 12.2516  255 255 255
-48.521 -13.1811 -15.6643  255 255 255
-49.2988 -13.7194 -15.032  255 255 255
55.9901 -14.9184 5.12909  255 255 255
53.6666 -14.8398 1.041  255 255 255
56.4154 -14.9769 9.30233  255 255 255
-48.77 -15.1595 -15.8659  255 255 255
-48.7219 -14.6715 -15.3515  255 255 255
56.3597 -15.7837 6.17154  255 255 255
56.432 -16.3515 6.89042  255 255 255
-14.4506 -15.6984 32.5402  255 255 255
-56.5054 -15.2114 -13.9334  255 255 255
56.1623 -16.4324 10.0171  255 255 255
56.9188 -16.0489 9.23009  255 255 255
-50.8248 -16.7398 -12.7245  255 255 255
-55.3521 -17.0372 -12.2437  255 255 255
56.6225 -17.36 4.64134  255 255 255
55.6583 -16.2457 7.58201  255 255 255
-13.991 -16.6238 32.616  255 255 255
-11.529 -16.7389 35.2167  255 255 255
63.7977 -17.782 25.4833  255 255 255
-6.71288 -16.7744 37.6967  255 255 255
-57.3181 -17.2853 -13.3185  255 255 255
56.9915 -18.7991 7.55769  255 255 255
59.6995 -17.2606 23.414  255 255 255
57.3579 -17.663 7.84259  255 255 255
58.2695 -16.7927 7.18216  255 255 255
56.0344 -17.8413 3.6438  255 255 255
1.13824 -17.7884 42.3325  255 255 255
56.7185 -20.0804 7.77056  255 255 255
57.9062 -19.7759 7.9598  255 255 255
-58.1171 -19.8809 -8.47637  255 255 255
-55.5366 -19.1388 -7.17802  255 255 255
3.6775 -17.684 36.3507  255 255 255
3.37332 -18.722 40.804  255 255 255
56.626 -19.9781 3.49931  255 255 255
61.0932 -19.4424 18.2043  255 255 255
72.1542 -19.9549 0.0624886  255 255 255
-51.7036 -21.0073 -8.18  255 255 255
3.45198 -18.4073 39.8819  255 255 255
3.63947 -19.3084 40.7764  255 255 255
58.2968 -20.8401 9.36581  255 255 255
57.7171 -20.8588 6.10018  255 255 255
61.3992 -21.0365 26.8215  255 255 255
63.5503 -19.8772 19.4831  255 255 255
-51.9343 -21.8513 -5.007  255 255 255
-10.4393 -18.8557 38.0044  255 255 255
-8.8751 -19.7771 37.8803  255 255 255
-49.3862 -22.4468 -4.4544  255 255 255
3.6523 -20.9221 39.4317  255 255 255
-3.09395 -19.7833 40.4187  255 255 255
-14.0133 -20.1799 35.066  255 255 255
-12.1892 -21.0036 39.4342  255 255 255
61.1392 -23.1083 11.1904  255 255 255
68.5137 -24.341 -3.31792  255 255 255
58.6859 -23.7816 7.52354  255 255 255
61.6241 -24.2748 23.3352  255 255 255
8.60547 -21.5982 32.1699  255 255 255
8.93446 -22.6401 33.0453  255 255 255
6.31801 -22.3891 33.4367  255 255 255
60.9763 -24.3637 13.6918  255 255 255
5.36245 -21.2233 34.4894  255 255 255
-17.2216 -21.9776 36.0326  255 255 255
-0.926764 -23.7917 37.9694  255 255 255
11.7203 -25.0725 30.4921  255 255 255
65.7249 -28.3296 20.778  255 255 255
62.4731 -28.9046 10.2114  255 255 255
-46.8585 -28.3303 10.7285  255 255 255
-48.2257 -31.2985 16.1585  255 255 255
-46.7063 -32.162 8.75473  255 255 255
-16.7135 -30.294 33.8196  255 255 255
-4.08936 -29.1115 43.819  255 255 255
-11.4915 -28.93 41.3898  255 255 255
0.0230629 -28.6193 42.3057  255 255 255
-17.6137 -30.4403 31.9516  255 255 255
-1.0003 -28.4368 43.9377  255 255 255
-47.2594 -33.5282 12.9558  255 255 255
-3.62879 -28.8519 43.7855  255 255 255
-3.63383 -29.7445 44.0711  255 255 255
-3.23838 -30.004 45.5952  255 255 255
-7.08023 -31.5057 41.0778  255 255 255
-3.17989 -31.4744 45.3605  255 255 255
-16.6266 -33.3186 29.9331  255 255 255
-7.18627 -32.0982 39.6731  255 255 255
-86.2862 -40.2493 11.2421  255 255 255
51.0902 -41.2723 10.9576  255 255 255
67.9542 -43.36 4.79148  255 255 255
61.9812 -43.9778 8.28585  255 255 255
2.13381 -38.0656 36.482  255 255 255
61.0981 -45.0726 10.8108  255 255 255
56.8009 -46.2686 13.0203  255 255 255
12.5374 -42.2284 33.9084  255 255 255
51.1254 -47.6487 18.2694  255 255 255
-25.3587 -47.4475 32.8777  255 255 255
-22.2828 -49.3191 31.4911  255 255 255
54.2623 -54.1645 22.1622  255 255 255
33.1105 -50.549 34.2439  255 255 255
27.4944 -50.9562 32.4541  255 255 255
-0.459885 -51.6282 38.5511  255 255 255
0.0918352 -52.1752 34.3501  255 255 255
-16.6668 -53.1007 36.8607  255 255 255
23.7477 -53.4467 35.8679  255 255 255
-9.38797 -51.9816 37.6064  255 255 255
-33.0907 -52.5094 37.7092  255 255 255
47.3028 -56.6053 28.2081  255 255 255
24.1303 -51.9369 38.8976  255 255 255
-6.15621 -53.2097 40.0091  255 255 255
-4.92393 -52.864 40.5813  255 255 255
-9.6421 -55.0346 38.1615  255 255 255
-4.3536 -54.4276 39.3576  255 255 255
-1.37783 -53.6166 40.9117  255 255 255
32.7768 -56.2587 34.3491  255 255 255
-6.2757 -53.7851 40.1214  255 255 255
-6.21082 -53.7576 40.9832  255 255 255
-29.3427 67.8765 -52.1927  255 255 255
4.2462 80.1841 -79.8306  255 255 255
-69.1123 54.7061 -21.8684  255 255 255
39.7686 87.379 -99.6248  255 255 255
-70.083 52.9111 -19.0736  255 255 255
-64.7382 56.5553 -26.0254  255 255 255
-63.3224 55.2508 -24.2737  255 255 255
-41.7184 62.9655 -42.692  255 255 255
52.7672 54.529 -25.7958  255 255 255
-52.8753 59.9133 -34.2087  255 255 255
-53.1094 59.359 -33.1539  255 255 255
-7.41692 72.9704 -68.6868  255 255 255
56.4951 89.7212 -108.565  255 255 255
52.7056 46.516 -5.68226  255 255 255
13.5159 77.7227 -83.6773  255 255 255
48.5287 50.5686 -15.6756  255 255 255
49.1386 48.5948 -11.9881  255 255 255
-69.3368 53.7891 -23.718  255 255 255
25.0202 79.4307 -91.4495  255 255 255
47.7566 86.0436 -103.57  255 255 255
-1.7312 72.946 -79.6406  255 255 255
51.8403 45.6993 -10.0373  255 255 255
52.3947 43.3952 -4.76021  255 255 255
-137.91 88.7229 -110.471  255 255 255
70.5835 89.5894 -120.33  255 255 255
29.7109 79.0815 -96.8036  255 255 255
-131.497 82.6457 -101.533  255 255 255
52.1027 83.3015 -107.985  255 255 255
45.2152 31.4103 22.0172  255 255 255
30.6646 78.9669 -98.509  255 255 255
2.68315 69.786 -82.2075  255 255 255
-117.956 69.1582 -83.3258  255 255 255
-117.057 70.0544 -84.4921  255 255 255
-30.3093 57.5715 -59.6204  255 255 255
48.3643 43.3864 -21.6977  255 255 255
48.4341 43.3131 -22.4946  255 255 255
46.0531 28.7709 17.0549  255 255 255
49.5031 41.2384 -20.3253  255 255 255
52.682 38.2244 -10.9442  255 255 255
50.214 38.1915 -17.3285  255 255 255
-82.1014 42.4955 -27.7826  255 255 255
48.7438 25.848 20.4887  255 255 255
-20.3061 56.2145 -75.3492  255 255 255
-112.97 61.2848 -83.6298  255 255 255
-81.0721 46.4179 -45.5415  255 255 255
56.7064 20.8433 32.7374  255 255 255
56.951 20.8998 33.1666  255 255 255
52.8791 23.7864 21.7231  255 255 255
49.8528 21.1559 18.4574  255 255 255
47.5913 20.7979 19.8142  255 255 255
52.363 21.1945 20.6572  255 255 255
52.1368 21.8485 20.1897  255 255 255
-46.0196 41.5297 -55.9015  255 255 255
49.3067 18.7993 21.9578  255 255 255
46.6064 21.2923 16.7811  255 255 255
46.3122 21.9611 14.1616  255 255 255
46.0824 21.4211 15.1069  255 255 255
49.3326 20.1202 14.985  255 255 255
53.386 16.9982 29.9535  255 255 255
-76.8391 36.2128 -46.8014  255 255 255
53.608 15.8166 26.5592  255 255 255
49.3276 16.6734 19.3537  255 255 255
-81.5026 33.8013 -47.9277  255 255 255
52.047 25.612 -19.3749  255 255 255
54.0414 14.4692 25.3603  255 255 255
55.6302 12.742 33.2316  255 255 255
54.5202 12.2223 32.3091  255 255 255
53.5394 26.7995 -24.5553  255 255 255
49.753 15.0089 16.9135  255 255 255
48.5671 15.8905 18.1079  255 255 255
-0.225133 44.7946 -100.533  255 255 255
54.1873 12.7199 29.1139  255 255 255
45.5856 17.2512 9.6011  255 255 255
0.245177 40.484 -87.1584  255 255 255
53.7216 31.933 -53.5016  255 255 255
47.6256 14.784 16.744  255 255 255
52.0964 12.2252 22.2911  255 255 255
50.4286 12.4016 14.5806  255 255 255
49.3065 12.7703 13.1861  255 255 255
46.0689 14.6045 7.16365  255 255 255
60.6496 17.6582 -3.38353  255 255 255
59.1108 18.4485 -13.1918  255 255 255
-61.8482 28.7795 -60.4337  255 255 255
52.1962 10.9496 17.7356  255 255 255
-27.5064 29.8057 -73.6742  255 255 255
1.12493 27.3629 -75.4838  255 255 255
46.1466 11.3128 9.41072  255 255 255
48.5749 9.58613 12.6567  255 255 255
-71.7995 26.6442 -78.1266  255 255 255
-67.3894 24.9106 -71.0957  255 255 255
-17.6695 20.1313 -62.5873  255 255 255
53.3274 6.02053 19.5434  255 255 255
-18.783 16.8288 -55.6826  255 255 255
49.7016 6.93539 7.9178  255 255 255
53.725 4.60807 17.4159  255 255 255
68.2168 7.87973 1.26711  255 255 255
52.3285 3.89971 16.3712  255 255 255
-82.3474 14.2194 -56.0023  255 255 255
72.9184 6.54811 -0.854796  255 255 255
-2.10276 1.66774 23.018  255 255 255
-44.7359 9.50782 -44.7833  255 255 255
-42.381 9.71904 -45.1173  255 255 255
52.9858 -0.0637303 14.1057  255 255 255
57.2634 -1.56895 25.089  255 255 255
53.8217 -1.07735 11.5788  255 255 255
53.399 -1.78097 12.6637  255 255 255
56.4861 -2.63472 20.47  255 255 255
57.1153 -2.77822 26.1421  255 255 255
54.9756 -1.28298 14.1963  255 255 255
54.3188 -2.64283 19.6452  255 255 255
57.2633 -4.71799 22.0335  255 255 255
60.2396 -6.34371 29.3707  255 255 255
57.8114 -5.15618 27.8223  255 255 255
-61.9661 -2.75322 -17.194  255 255 255
49.4406 -3.59579 -8.79411  255 255 255
57.1494 -5.92687 17.6629  255 255 255
74.7847 -4.08723 1.23548  255 255 255
75.4239 -4.6126 1.66913  255 255 255
55.3789 -6.13134 13.9813  255 255 255
56.8413 -7.30846 19.6386  255 255 255
57.1141 -6.97954 19.0024  255 255 255
58.0391 -7.51667 25.0149  255 255 255
59.2977 -9.60663 29.135  255 255 255
-60.5363 -6.42984 -28.1854  255 255 255
-54.1137 -7.46649 -24.707  255 255 255
49.9486 -7.89187 -9.99843  255 255 255
54.2768 -6.70774 -22.045  255 255 255
-62.8727 -6.74225 -25.5404  255 255 255
-62.438 -7.73348 -22.587  255 255 255
-47.725 -7.57449 -22.7848  255 255 255
62.1845 -5.46137 -53.6766  255 255 255
-55.5216 -8.28424 -23.2001  255 255 255
-62.4515 -8.37632 -22.6455  255 255 255
-13.2367 -10.674 30.9031  255 255 255
-108.806 -8.18552 -22.3211  255 255 255
53.062 -12.0951 1.77957  255 255 255
-99.377 -12.7758 -18.4148  255 255 255
-11.2157 -14.7134 37.6401  255 255 255
-12.065 -14.74 37.1521  255 255 255
-10.8302 -14.5052 35.5488  255 255 255
3.80962 -15.2171 40.2206  255 255 255
60.357 -15.3021 20.4431  255 255 255
2.84571 -15.3174 41.6964  255 255 255
-45.1745 -16.3644 -12.0882  255 255 255
60.3804 -16.3495 25.1502  255 255 255
60.7301 -16.4385 25.0175  255 255 255
-45.5954 -15.2466 -12.5575  255 255 255
-19.7378 -15.8496 28.7917  255 255 255
58.1283 -16.1368 15.0885  255 255 255
60.2777 -18.118 24.3356  255 255 255
60.0785 -16.9595 23.8817  255 255 255
59.1672 -17.5541 14.5932  255 255 255
57.5602 -17.5396 9.03437  255 255 255
-57.4389 -17.449 -9.47849  255 255 255
15.9352 -18.1618 33.6828  255 255 255
-49.1768 -19.8109 -7.85795  255 255 255
-8.00535 -18.2429 36.4157  255 255 255
-51.1503 -20.9739 -7.2759  255 255 255
17.2621 -19.4789 25.8507  255 255 255
56.6409 -21.7766 6.54294  255 255 255
9.73407 -20.5441 32.1713  255 255 255
10.6031 -22.4126 30.6863  255 255 255
15.2885 -21.638 35.7111  255 255 255
2.9824 -22.7748 40.7522  255 255 255
63.668 -24.1756 19.1736  255 255 255
-3.06298 -22.1513 41.4025  255 255 255
6.55999 -22.8181 39.4551  255 255 255
63.0117 -26.2496 12.9425  255 255 255
-11.5101 -23.7394 38.8381  255 255 255
-25.421 -26.211 18.5585  255 255 255
10.2132 -24.9203 37.2949  255 255 255
62.787 -29.2101 10.5042  255 255 255
-47.6266 -29.2417 13.2054  255 255 255
13.0497 -26.6295 31.9179  255 255 255
75.6175 -31.8284 -0.58405  255 255 255
5.90212 -26.6641 34.9372  255 255 255
-2.90476 -29.4747 43.869  255 255 255
1.45819 -29.4661 39.157  255 255 255
0.606022 -29.7832 43.7016  255 255 255
-5.63561 -34.1462 38.3923  255 255 255
-8.26297 -34.0674 36.3027  255 255 255
-4.9253 -35.8594 37.7092  255 255 255
-1.56998 -36.7014 35.8743  255 255 255
-0.820384 -36.4989 32.343  255 255 255
43.8813 -43.6785 18.4361  255 255 255
61.8445 -46.5045 11.1983  255 255 255
62.5562 -48.0104 10.6828  255 255 255
-30.6906 -46.3515 27.8235  255 255 255
60.2134 -51.0362 17.9077  255 255 255
26.2204 -47.9913 29.5875  255 255 255
25.0127 -48.3271 31.5328  255 255 255
23.4193 -48.6257 32.4817  255 255 255
54.9476 -52.9209 20.6954  255 255 255
-19.6641 -50.0029 32.1376  255 255 255
29.3553 -50.6692 34.3285  255 255 255
-69.4491 -55.155 30.5895  255 255 255
24.6606 -55.4109 35.857  255 255 255
50.4205 -58.3864 28.1929  255 255 255
-69.5093 54.9345 -26.7657  255 255 255
-68.1723 52.5191 -24.1427  255 255 255
45.2451 87.5123 -106.843  255 255 255
50.3815 48.0528 -11.1744  255 255 255
50.9186 45.4146 -7.33127  255 255 255
63.2322 88.3008 -116.576  255 255 255
49.1752 28.7331 25.8179  255 255 255
57.6823 83.114 -120.788  255 255 255
51.393 28.7561 23.0822  255 255 255
-34.0896 55.968 -61.3308  255 255 255
14.1912 76.0969 -114.425  255 255 255
53.6837 26.8577 26.2867  255 255 255
53.1443 25.5647 26.0496  255 255 255
55.7193 24.1633 32.5124  255 255 255
-3.92568 61.6088 -78.921  255 255 255
45.8505 27.954 16.166  255 255 255
56.6909 25.3397 24.367  255 255 255
52.3216 23.9303 24.5777  255 255 255
52.5381 24.8025 25.3821  255 255 255
47.8074 23.8131 23.143  255 255 255
53.311 23.5917 22.4123  255 255 255
46.5995 23.3516 19.0966  255 255 255
47.9282 22.1205 17.2025  255 255 255
54.4014 34.0147 -23.6338  255 255 255
67.9232 38.0305 -45.4635  255 255 255
-102.711 47.5016 -73.7389  255 255 255
-140.594 57.7699 -123.393  255 255 255
53.9856 14.3178 30.6378  255 255 255
-140.275 55.974 -118.121  255 255 255
-139.686 55.8964 -117.791  255 255 255
-81.3681 33.3122 -37.3824  255 255 255
50.4861 15.7423 23.401  255 255 255
55.3483 13.9892 27.4345  255 255 255
56.3611 11.8531 31.0326  255 255 255
55.5223 12.6885 24.4054  255 255 255
50.1167 13.6966 17.6719  255 255 255
48.3083 14.6464 9.76758  255 255 255
-66.1862 26.3197 -43.1386  255 255 255
-37.4938 34.4191 -78.0389  255 255 255
-37.6522 34.2984 -78.2128  255 255 255
48.6255 12.6898 11.9034  255 255 255
48.9815 12.9118 10.4009  255 255 255
46.0353 14.6269 3.82275  255 255 255
47.4428 11.9685 13.4737  255 255 255
53.4594 8.74472 18.8535  255 255 255
-79.9999 21.821 -51.3067  255 255 255
1.26885 24.7597 -66.2292  255 255 255
50.9215 4.42627 3.77275  255 255 255
51.73 4.34898 4.4797  255 255 255
54.4363 6.40651 -7.47035  255 255 255
58.1893 0.566293 29.3141  255 255 255
52.6756 1.64488 15.6633  255 255 255
54.2259 1.10449 17.8244  255 255 255
-41.9287 8.31365 -41.3752  255 255 255
54.2745 0.985488 17.4707  255 255 255
61.8982 -2.91867 26.0485  255 255 255
52.8758 -2.21678 11.1567  255 255 255
57.9868 -3.92022 27.6284  255 255 255
56.362 -2.56194 10.0985  255 255 255
57.7481 -6.67767 22.7835  255 255 255
-10.425 -7.32213 33.8207  255 255 255
-9.38306 -8.69207 33.849  255 255 255
61.4058 -7.73073 22.3978  255 255 255
59.3779 -7.53182 28.2237  255 255 255
-54.8997 -4.52848 -26.25  255 255 255
60.1033 -9.24477 26.6089  255 255 255
55.8959 -9.88108 8.74938  255 255 255
56.3231 -10.0731 8.07231  255 255 255
60.0421 -10.0349 23.5338  255 255 255
53.778 -9.56036 5.0632  255 255 255
-46.7105 -12.076 -15.2613  255 255 255
-21.6497 -12.3575 22.3536  255 255 255
60.5223 -13.3321 17.0302  255 255 255
-55.4461 -13.4218 -15.03  255 255 255
-45.7113 -13.9587 -10.1917  255 255 255
-53.9496 -15.5221 -13.3928  255 255 255
5.27701 -15.799 40.8129  255 255 255
60.2112 -16.052 25.6746  255 255 255
63.8586 -18.8427 -4.49664  255 255 255
57.3894 -18.6087 8.13099  255 255 255
57.0407 -19.6699 6.02355  255 255 255
59.3685 -20.3609 10.6517  255 255 255
60.2507 -20.88 10.9809  255 255 255
-55.8772 -21.2905 -7.20521  255 255 255
-50.4205 -21.9466 -6.14849  255 255 255
-51.4479 -21.2668 -3.25516  255 255 255
6.94138 -20.8124 39.7508  255 255 255
-13.1342 -21.1224 38.1801  255 255 255
-51.2687 -24.3785 -1.06739  255 255 255
-11.2259 -21.8136 39.5037  255 255 255
-52.9097 -25.4034 -0.956476  255 255 255
60.5246 -24.413 11.9839  255 255 255
68.7705 -26.7107 -6.51288  255 255 255
3.01325 -22.4394 35.1822  255 255 255
63.2956 -24.9512 19.3083  255 255 255
-12.6588 -23.5261 36.839  255 255 255
-15.1881 -23.9047 38.1525  255 255 255
-49.0306 -27.581 12.7038  255 255 255
0.0541625 -24.4558 37.8394  255 255 255
-0.267461 -24.9517 38.0513  255 255 255
40.9287 -29.621 1.78253  255 255 255
65.9841 -31.3209 21.3524  255 255 255
1.49185 -28.2659 38.7372  255 255 255
3.30592 -30.2777 37.4468  255 255 255
13.7072 -31.4944 36.5471  255 255 255
-14.6686 -34.1608 32.7462  255 255 255
13.9641 -35.0553 30.4777  255 255 255
16.3487 -36.8316 30.0833  255 255 255
-10.4571 -34.6901 34.396  255 255 255
-11.7978 -38.1976 30.0663  255 255 255
53.3607 -42.4654 19.3603  255 255 255
59.9425 -45.9397 12.4694  255 255 255
4.76373 -39.5596 34.1703  255 255 255
29.7817 -48.5203 26.1643  255 255 255
24.8354 -49.5451 30.4889  255 255 255
26.9664 -49.2379 29.0616  255 255 255
32.4709 -48.9629 31.0114  255 255 255
33.9556 -49.0665 30.4246  255 255 255
67.43 -53.487 15.7576  255 255 255
66.6353 -54.3143 16.2602  255 255 255
55.2443 -54.0365 21.7723  255 255 255
-22.5409 -48.1206 35.2617  255 255 255
-19.3672 -50.1106 31.4329  255 255 255
-20.2157 -52.0127 34.8983  255 255 255
47.2411 -54.3584 37.0591  255 255 255
-8.51984 -52.3181 39.964  255 255 255
-7.42485 -53.2043 39.6653  255 255 255
20.3019 -53.6023 40.0513  255 255 255
48.5045 -58.4078 29.5073  255 255 255
53.0534 29.192 28.8686  255 255 255
54.6052 25.0699 28.9152  255 255 255
54.1167 34.3432 -11.4339  255 255 255
-76.4475 40.9699 -42.2434  255 255 255
47.5125 23.738 15.9924  255 255 255
-81.8721 38.4216 -33.7222  255 255 255
53.7157 30.369 -14.6919  255 255 255
54.9535 18.5586 27.0511  255 255 255
-77.9212 39.4699 -44.1783  255 255 255
45.9622 19.9999 17.0055  255 255 255
48.0819 20.7239 17.7988  255 255 255
-65.3919 29.9492 -32.6967  255 255 255
47.2 15.7962 5.30621  255 255 255
54.7352 10.4217 25.7722  255 255 255
50.7519 10.8311 15.7994  255 255 255
49.7161 10.5902 13.4547  255 255 255
51.7739 7.73812 15.346  255 255 255
-19.3577 20.5005 -61.7094  255 255 255
-84.5541 18.4371 -55.4739  255 255 255
50.4103 6.97065 11.4358  255 255 255
50.0528 7.70327 10.1237  255 255 255
52.1678 10.9268 -16.8711  255 255 255
56.6482 3.45594 20.9231  255 255 255
-32.28 9.95801 -48.2895  255 255 255
68.8773 2.92411 -0.982281  255 255 255
-40.8158 8.55039 -45.5872  255 255 255
50.2847 2.08843 5.15608  255 255 255
66.1875 2.51265 0.654568  255 255 255
56.8108 -3.78042 26.3419  255 255 255
55.8588 -5.06323 17.5794  255 255 255
-5.63598 -9.00999 38.9454  255 255 255
56.7788 -9.50134 -15.4743  255 255 255
-8.3491 -11.5217 38.4359  255 255 255
58.5387 -10.8121 22.1623  255 255 255
-103.452 -9.69123 -21.5915  255 255 255
53.4078 -11.5269 4.67898  255 255 255
-45.6786 -14.3736 -13.5196  255 255 255
-14.4986 -16.1519 33.5014  255 255 255
-15.1261 -15.795 33.7201  255 255 255
-47.2006 -15.8637 -12.5967  255 255 255
13.6516 -20.2557 27.7584  255 255 255
-48.5387 -22.3755 0.702273  255 255 255
-20.1103 -21.2229 35.5886  255 255 255
-49.2251 -25.0713 8.68381  255 255 255
14.6878 -26.9211 40.3171  255 255 255
5.43881 -30.4058 43.9873  255 255 255
-1.58892 -29.0861 44.6913  255 255 255
-35.1389 -34.7349 14.5655  255 255 255
-10.0111 -31.1367 37.8176  255 255 255
-8.38127 -33.4562 37.1475  255 255 255
-7.10013 -32.2192 38.6418  255 255 255
16.741 -38.0069 28.2027  255 255 255
-13.3471 -38.1254 31.8701  255 255 255
61.9552 -45.144 10.3156  255 255 255
-12.2843 -39.6579 32.8132  255 255 255
70.3463 -51.5449 11.6108  255 255 255
-20.4177 -50.2877 32.7409  255 255 255
-11.9806 -52.0984 41.4098  255 255 255
-12.5623 -52.2362 40.9895  255 255 255
-15.8185 -53.1231 42.6654  255 255 255
-29.4595 66.3743 -54.133  255 255 255
-27.922 66.6218 -53.5871  255 255 255
17.0458 78.0392 -87.6421  255 255 255
73.119 92.6084 -121.234  255 255 255
46.5657 32.7704 20.7784  255 255 255
11.8534 70.7088 -86.0458  255 255 255
7.5623 69.7635 -86.0752  255 255 255
51.9061 27.0595 26.9409  255 255 255
56.2251 20.0597 28.9354  255 255 255
51.004 31.4792 -20.0932  255 255 255
51.3738 25.2123 -25.0169  255 255 255
56.9393 -6.51351 22.4392  255 255 255
53.5796 -6.2578 3.21621  255 255 255
59.9738 -8.85722 25.27  255 255 255
-11.5964 -10.3727 34.7014  255 255 255
-14.4744 -11.8277 31.6045  255 255 255
-12.7364 -14.3534 34.7515  255 255 255
13.6772 -17.0085 30.0096  255 255 255
6.17018 -20.4676 38.2461  255 255 255
-12.428 -29.8323 40.9553  255 255 255
11.3275 -33.2142 36.9248  255 255 255
45.2703 -37.4564 13.7749  255 255 255
-1.28158 -44.1162 30.7382  255 255 255
42.66 -48.9982 27.711  255 255 255
-16.9963 -51.167 39.7695  255 255 255
58.9311 92.8334 -131.459  255 255 255
18.3553 73.2576 -89.6037  255 255 255
54.6843 26.0402 26.3323  255 255 255
52.5316 19.7778 20.1467  255 255 255
-42.5447 36.4755 -79.2266  255 255 255
53.7007 -4.00532 5.2465  255 255 255
57.6366 -10.4394 21.401  255 255 255
-7.26451 -13.5573 37.7626  255 255 255
-11.3327 -26.8658 41.006  255 255 255
-2.87868 -29.959 42.6  255 255 255
-11.424 -29.8872 40.2353  255 255 255
-4.30758 -30.3212 44.4368  255 255 255
-6.38667 -34.379 37.8956  255 255 255
-5.90108 -39.8379 34.8916  255 255 255
-2.84757 -40.8087 33.9371  255 255 255
-1.52601 -43.4652 32.6955  255 255 255
-26.4005 -48.5204 36.7196  255 255 255
-0.782683 70.1463 -89.4023  255 255 255
-0.805861 67.4772 -82.3096  255 255 255
55.1772 -3.9985 17.1299  255 255 255
58.6572 -4.19223 22.3883  255 255 255
62.1054 -3.90527 -2.93557  255 255 255
56.9219 -8.34885 22.5174  255 255 255
57.3019 -7.81962 24.6057  255 255 255
5.75942 -15.2896 40.0115  255 255 255
-14.0292 -23.1186 38.3599  255 255 255
-6.44529 -27.1248 38.7058  255 255 255
21.1119 77.8023 -88.0045  255 255 255
3.44182 71.87 -81.5678  255 255 255
2.88067 74.3027 -84.9185  255 255 255
10.7308 78.1626 -104.459  255 255 255
10.1858 76.4616 -99.9548  255 255 255
55.967 90.672 -147.293  255 255 255
52.0552 28.504 24.025  255 255 255
55.9729 -8.40078 15.4645  255 255 255
7.11626 -18.2675 39.9994  255 255 255
-2.48998 -22.4922 37.4191  255 255 255
-41.4521 49.4091 -56.6215  255 255 255
-41.3176 48.6421 -56.8693  255 255 255
55.7623 1.64812 23.0837  255 255 255
66.4449 -4.29355 -3.08469  255 255 255
-24.9704 64.275 -58.5332  255 255 255
5.88279 79.9964 -73.7671  255 255 255
21.6716 86.1989 -80.0107  255 255 255
-61.4621 47.2753 -38.1586  255 255 255
-62.3569 46.5239 -38.0578  255 255 255
-56.075 50.2003 -41.7135  255 255 255
21.4127 88.1294 -85.7701  255 255 255
7.01386 80.0133 -72.9946  255 255 255
-48.6656 51.4704 -45.4593  255 255 255
-47.175 51.4414 -41.0044  255 255 255
-47.5712 50.3236 -41.3205  255 255 255
19.922 84.9086 -80.0956  255 255 255
22.144 91.4959 -93.4584  255 255 255
21.1998 85.3717 -79.9355  255 255 255
-24.7622 65.3947 -60.3617  255 255 255
-25.1698 64.1504 -59.4188  255 255 255
-25.6032 62.8916 -59.7071  255 255 255
21.1085 86.7723 -82.2324  255 255 255
21.7807 84.7539 -82.5915  255 255 255
-63.2429 46.7528 -38.9039  255 255 255
-57.8951 40.9703 -26.0654  255 255 255
35.7185 91.9137 -91.4182  255 255 255
-73.1006 42.0149 -34.6439  255 255 255
-53.7844 49.0684 -44.7677  255 255 255
-54.8909 48.523 -44.363  255 255 255
-62.6585 44.6668 -39.6767  255 255 255
-30.334 59.9585 -58.0264  255 255 255
-76.6373 41.2281 -38.5206  255 255 255
-67.5178 32.4829 -14.2803  255 255 255
-77.3827 41.9771 -41.9541  255 255 255
27.4267 88.6964 -92.2704  255 255 255
-63.8809 43.8503 -40.3205  255 255 255
33.6998 88.0221 -90.7871  255 255 255
-2.21097 73.1784 -76.7844  255 255 255
-35.6147 53.3392 -51.4686  255 255 255
35.7918 93.1125 -102.678  255 255 255
26.6377 84.0979 -89.3167  255 255 255
-6.44908 69.0001 -74.8744  255 255 255
-66.0518 41.7744 -43.7394  255 255 255
-64.4571 41.2411 -39.2831  255 255 255
-79.331 38.3553 -39.6927  255 255 255
-54.1553 41.5721 -35.0113  255 255 255
-1.37248 72.9422 -82.0662  255 255 255
35.5943 88.0631 -96.1002  255 255 255
-3.26204 69.9538 -72.5185  255 255 255
-56.3921 45.1025 -44.922  255 255 255
-17.7778 61.874 -67.1572  255 255 255
-48.3295 49.6472 -53.7624  255 255 255
-33.2782 55.9764 -58.2969  255 255 255
-72.9038 39.1683 -43.77  255 255 255
-20.3476 62.1127 -67.0112  255 255 255
-72.9554 38.5338 -40.3541  255 255 255
-13.7743 63.8908 -71.7886  255 255 255
-18.9015 62.1016 -68.6101  255 255 255
-66.49 31.8639 -23.0375  255 255 255
-54.9732 38.8527 -32.0547  255 255 255
-16.0428 63.193 -68.5266  255 255 255
54.7979 99.3176 -117.238  255 255 255
-70.5067 29.7672 -16.4453  255 255 255
-46.4931 49.1358 -54.5  255 255 255
-14.2237 64.594 -71.1061  255 255 255
-63.1787 33.853 -24.6744  255 255 255
-41.8979 46.8953 -49.6436  255 255 255
-46.2979 48.3175 -55.8071  255 255 255
-0.29771 70.077 -80.7301  255 255 255
-56.18 39.0386 -37.0972  255 255 255
-59.1781 41.551 -47.0323  255 255 255
